-1052.615167 980.371496 939.712582
-1052.817245 980.137195 941.688504
-1053.019324 979.902894 943.664426
-1053.221402 979.668593 945.640347
-1053.423481 979.434292 947.616269
-1053.625559 979.199991 949.592191
-1053.827638 978.965691 951.568113
-1054.029716 978.731390 953.544035
-1054.231794 978.497089 955.519957
-1054.433873 978.262788 957.495879
-1054.689970 977.965854 960.000000
-1054.689970 977.965854 962.000000
-1054.689970 977.965854 964.000000
-1054.689970 977.965854 966.000000
-1054.689970 977.965854 968.000000
-1054.689970 977.965854 970.000000
-1054.689970 977.965854 972.000000
-1054.689970 977.965854 976.000000
-1054.429065 978.938040 977.728231
-1054.168159 979.910226 979.456462
-1053.907253 980.882412 981.184693
-1053.646347 981.854598 982.912924
-1053.385442 982.826784 984.641155
-1053.124536 983.798970 986.369386
-1052.863630 984.771156 988.097617
-1052.602724 985.743343 989.825848
-1052.341818 986.715529 991.554079
-1052.080913 987.687715 993.282310
-1051.820007 988.659901 995.010541
-1051.559101 989.632087 996.738772
-1051.298195 990.604273 998.467003
-1051.037290 991.576459 1000.195234
-1050.776384 992.548645 1001.923465
-1050.515478 993.520831 1003.651696
-1050.254572 994.493017 1005.379927
-1049.993666 995.465203 1007.108158
-1049.732761 996.437389 1008.836389
-1049.471855 997.409575 1010.564620
-1049.210949 998.381761 1012.292851
-1048.950043 999.353947 1014.021082
-1048.689138 1000.326133 1015.749314
-1048.428232 1001.298319 1017.477545
-1048.167326 1002.270505 1019.205776
-1047.906420 1003.242691 1020.934007
-1047.645514 1004.214877 1022.662238
-1047.384609 1005.187063 1024.390469
-1047.123703 1006.159249 1026.118700
-1046.862797 1007.131436 1027.846931
-1046.601891 1008.103622 1029.575162
-1046.340985 1009.075808 1031.303393
-1046.080080 1010.047994 1033.031624
-1045.819174 1011.020180 1034.759855
-1045.558268 1011.992366 1036.488086
-1045.297362 1012.964552 1038.216317
-1045.036457 1013.936738 1039.944548
-1044.775551 1014.908924 1041.672779
-1044.424217 1016.218061 1044.000000
-1044.967700 1014.397987 1044.626065
-1045.511182 1012.577913 1045.252130
-1046.054665 1010.757839 1045.878195
-1046.598147 1008.937765 1046.504260
-1047.141630 1007.117691 1047.130325
-1047.685112 1005.297617 1047.756389
-1048.228595 1003.477543 1048.382454
-1048.772077 1001.657469 1049.008519
-1049.315560 999.837395 1049.634584
-1049.859042 998.017321 1050.260649
-1050.402524 996.197247 1050.886714
-1050.946007 994.377173 1051.512779
-1051.489489 992.557099 1052.138844
-1052.032972 990.737025 1052.764909
-1052.576454 988.916951 1053.390974
-1053.119937 987.096877 1054.017039
-1053.663419 985.276803 1054.643104
-1054.206902 983.456729 1055.269168
-1054.750384 981.636654 1055.895233
-1055.293867 979.816580 1056.521298
-1055.837349 977.996506 1057.147363
-1056.380832 976.176432 1057.773428
-1056.924314 974.356358 1058.399493
-1057.467797 972.536284 1059.025558
-1058.011279 970.716210 1059.651623
-1058.554761 968.896136 1060.277688
-1059.098244 967.076062 1060.903753
-1059.641726 965.255988 1061.529818
-1060.185209 963.435914 1062.155882
-1060.728691 961.615840 1062.781947
-1061.272174 959.795766 1063.408012
-1061.815656 957.975692 1064.034077
-1062.359139 956.155618 1064.660142
-1062.902621 954.335544 1065.286207
-1063.446104 952.515470 1065.912272
-1063.989586 950.695396 1066.538337
-1064.533069 948.875322 1067.164402
-1065.076551 947.055248 1067.790467
-1065.620034 945.235174 1068.416532
-1066.163516 943.415100 1069.042597
-1066.706999 941.595025 1069.668661
-1067.250481 939.774951 1070.294726
-1067.793963 937.954877 1070.920791
-1068.337446 936.134803 1071.546856
-1068.880928 934.314729 1072.172921
-1069.424411 932.494655 1072.798986
-1069.967893 930.674581 1073.425051
-1070.511376 928.854507 1074.051116
-1071.054858 927.034433 1074.677181
-1071.598341 925.214359 1075.303246
-1072.141823 923.394285 1075.929311
-1072.685306 921.574211 1076.555375
-1073.228788 919.754137 1077.181440
-1073.772271 917.934063 1077.807505
-1074.315753 916.113989 1078.433570
-1074.859236 914.293915 1079.059635
-1075.402718 912.473841 1079.685700
-1075.946200 910.653767 1080.311765
-1076.489683 908.833693 1080.937830
-1077.033165 907.013619 1081.563895
-1077.576648 905.193545 1082.189960
-1078.120130 903.373471 1082.816025
-1078.663613 901.553396 1083.442090
-1079.207095 899.733322 1084.068154
-1079.750578 897.913248 1084.694219
-1080.294060 896.093174 1085.320284
-1080.837543 894.273100 1085.946349
-1081.381025 892.453026 1086.572414
-1081.924508 890.632952 1087.198479
-1082.467990 888.812878 1087.824544
-1083.011473 886.992804 1088.450609
-1083.554955 885.172730 1089.076674
-1084.098437 883.352656 1089.702739
-1084.641920 881.532582 1090.328804
-1085.185402 879.712508 1090.954868
-1085.728885 877.892434 1091.580933
-1086.272367 876.072360 1092.206998
-1086.815850 874.252286 1092.833063
-1087.359332 872.432212 1093.459128
-1087.902815 870.612138 1094.085193
-1088.446297 868.792064 1094.711258
-1088.989780 866.971990 1095.337323
-1089.533262 865.151916 1095.963388
-1090.076745 863.331842 1096.589453
-1090.620227 861.511767 1097.215518
-1091.163710 859.691693 1097.841583
-1091.707192 857.871619 1098.467647
-1092.250675 856.051545 1099.093712
-1092.794157 854.231471 1099.719777
-1093.337639 852.411397 1100.345842
-1093.881122 850.591323 1100.971907
-1094.424604 848.771249 1101.597972
-1094.968087 846.951175 1102.224037
-1095.511569 845.131101 1102.850102
-1096.055052 843.311027 1103.476167
-1096.598534 841.490953 1104.102232
-1097.142017 839.670879 1104.728297
-1097.685499 837.850805 1105.354362
-1098.228982 836.030731 1105.980426
-1098.772464 834.210657 1106.606491
-1099.315947 832.390583 1107.232556
-1099.859429 830.570509 1107.858621
-1100.402912 828.750435 1108.484686
-1100.946394 826.930361 1109.110751
-1101.489876 825.110287 1109.736816
-1102.033359 823.290213 1110.362881
-1102.576841 821.470138 1110.988946
-1103.120324 819.650064 1111.615011
-1103.663806 817.829990 1112.241076
-1104.207289 816.009916 1112.867140
-1104.750771 814.189842 1113.493205
-1105.294254 812.369768 1114.119270
-1105.837736 810.549694 1114.745335
-1106.381219 808.729620 1115.371400
-1106.924701 806.909546 1115.997465
-1107.468184 805.089472 1116.623530
-1108.011666 803.269398 1117.249595
-1108.555149 801.449324 1117.875660
-1109.098631 799.629250 1118.501725
-1109.642114 797.809176 1119.127790
-1110.185596 795.989102 1119.753855
-1110.729078 794.169028 1120.379919
-1111.272561 792.348954 1121.005984
-1111.816043 790.528880 1121.632049
-1112.359526 788.708806 1122.258114
-1112.903008 786.888732 1122.884179
-1113.446491 785.068658 1123.510244
-1113.989973 783.248584 1124.136309
-1114.533456 781.428509 1124.762374
-1115.076938 779.608435 1125.388439
-1115.620421 777.788361 1126.014504
-1116.163903 775.968287 1126.640569
-1116.707386 774.148213 1127.266633
-1117.250868 772.328139 1127.892698
-1117.794351 770.508065 1128.518763
-1118.337833 768.687991 1129.144828
-1118.881315 766.867917 1129.770893
-1119.424798 765.047843 1130.396958
-1119.968280 763.227769 1131.023023
-1120.511763 761.407695 1131.649088
-1121.055245 759.587621 1132.275153
-1121.598728 757.767547 1132.901218
-1122.142210 755.947473 1133.527283
-1122.685693 754.127399 1134.153348
-1123.229175 752.307325 1134.779412
-1123.772658 750.487251 1135.405477
-1124.316140 748.667177 1136.031542
-1124.859623 746.847103 1136.657607
-1125.403105 745.027029 1137.283672
-1125.946588 743.206955 1137.909737
-1126.490070 741.386880 1138.535802
-1127.033552 739.566806 1139.161867
-1127.577035 737.746732 1139.787932
-1128.120517 735.926658 1140.413997
-1128.664000 734.106584 1141.040062
-1129.207482 732.286510 1141.666126
-1129.750965 730.466436 1142.292191
-1130.294447 728.646362 1142.918256
-1130.837930 726.826288 1143.544321
-1131.381412 725.006214 1144.170386
-1131.924895 723.186140 1144.796451
-1132.468377 721.366066 1145.422516
-1133.011860 719.545992 1146.048581
-1133.555342 717.725918 1146.674646
-1134.098825 715.905844 1147.300711
-1134.642307 714.085770 1147.926776
-1135.185790 712.265696 1148.552841
-1135.729272 710.445622 1149.178905
-1136.272754 708.625548 1149.804970
-1136.816237 706.805474 1150.431035
-1137.359719 704.985400 1151.057100
-1137.903202 703.165326 1151.683165
-1138.446684 701.345251 1152.309230
-1138.990167 699.525177 1152.935295
-1139.533649 697.705103 1153.561360
-1140.077132 695.885029 1154.187425
-1140.620614 694.064955 1154.813490
-1141.164097 692.244881 1155.439555
-1141.707579 690.424807 1156.065619
-1142.251062 688.604733 1156.691684
-1142.794544 686.784659 1157.317749
-1143.338027 684.964585 1157.943814
-1143.881509 683.144511 1158.569879
-1144.424991 681.324437 1159.195944
-1144.968474 679.504363 1159.822009
-1145.511956 677.684289 1160.448074
-1146.055439 675.864215 1161.074139
-1146.598921 674.044141 1161.700204
-1147.142404 672.224067 1162.326269
-1147.685886 670.403993 1162.952334
-1148.229369 668.583919 1163.578398
-1148.772851 666.763845 1164.204463
-1149.316334 664.943771 1164.830528
-1149.859816 663.123697 1165.456593
-1150.403299 661.303622 1166.082658
-1150.946781 659.483548 1166.708723
-1151.490264 657.663474 1167.334788
-1152.033746 655.843400 1167.960853
-1152.577228 654.023326 1168.586918
-1153.120711 652.203252 1169.212983
-1153.664193 650.383178 1169.839048
-1154.207676 648.563104 1170.465112
-1154.751158 646.743030 1171.091177
-1155.294641 644.922956 1171.717242
-1155.838123 643.102882 1172.343307
-1156.381606 641.282808 1172.969372
-1156.925088 639.462734 1173.595437
-1157.468571 637.642660 1174.221502
-1158.012053 635.822586 1174.847567
-1158.555536 634.002512 1175.473632
-1159.099018 632.182438 1176.099697
-1159.642501 630.362364 1176.725762
-1160.185983 628.542290 1177.351827
-1160.729466 626.722216 1177.977891
-1161.272948 624.902142 1178.603956
-1161.816430 623.082068 1179.230021
-1162.359913 621.261993 1179.856086
-1162.903395 619.441919 1180.482151
-1163.446878 617.621845 1181.108216
-1163.990360 615.801771 1181.734281
-1164.533843 613.981697 1182.360346
-1165.077325 612.161623 1182.986411
-1165.620808 610.341549 1183.612476
-1166.164290 608.521475 1184.238541
-1166.707773 606.701401 1184.864605
-1167.251255 604.881327 1185.490670
-1167.794738 603.061253 1186.116735
-1168.338220 601.241179 1186.742800
-1168.881703 599.421105 1187.368865
-1169.425185 597.601031 1187.994930
-1169.968667 595.780957 1188.620995
-1170.512150 593.960883 1189.247060
-1171.055632 592.140809 1189.873125
-1171.599115 590.320735 1190.499190
-1172.142597 588.500661 1191.125255
-1172.686080 586.680587 1191.751320
-1173.229562 584.860513 1192.377384
-1173.773045 583.040439 1193.003449
-1174.316527 581.220364 1193.629514
-1174.860010 579.400290 1194.255579
-1175.403492 577.580216 1194.881644
-1175.946975 575.760142 1195.507709
-1176.490457 573.940068 1196.133774
-1177.033940 572.119994 1196.759839
-1177.577422 570.299920 1197.385904
-1178.120904 568.479846 1198.011969
-1178.664387 566.659772 1198.638034
-1179.207869 564.839698 1199.264099
-1179.751352 563.019624 1199.890163
-1180.294834 561.199550 1200.516228
-1180.838317 559.379476 1201.142293
-1181.381799 557.559402 1201.768358
-1181.925282 555.739328 1202.394423
-1182.468764 553.919254 1203.020488
-1183.012247 552.099180 1203.646553
-1183.555729 550.279106 1204.272618
-1184.099212 548.459032 1204.898683
-1184.642694 546.638958 1205.524748
-1185.186177 544.818884 1206.150813
-1185.729659 542.998810 1206.776877
-1186.273142 541.178735 1207.402942
-1186.816624 539.358661 1208.029007
-1187.360106 537.538587 1208.655072
-1187.903589 535.718513 1209.281137
-1188.447071 533.898439 1209.907202
-1188.990554 532.078365 1210.533267
-1189.534036 530.258291 1211.159332
-1190.077519 528.438217 1211.785397
-1190.621001 526.618143 1212.411462
-1191.164484 524.798069 1213.037527
-1192.000000 522.000000 1214.000000
-1192.745272 520.996589 1212.438675
-1193.490545 519.993177 1210.877351
-1194.235817 518.989766 1209.316026
-1194.981089 517.986355 1207.754701
-1195.726362 516.982943 1206.193376
-1196.471634 515.979532 1204.632052
-1197.216906 514.976121 1203.070727
-1197.962179 513.972709 1201.509402
-1198.707451 512.969298 1199.948078
-1199.452723 511.965887 1198.386753
-1200.197996 510.962475 1196.825428
-1200.943268 509.959064 1195.264104
-1201.688540 508.955653 1193.702779
-1202.433813 507.952241 1192.141454
-1203.179085 506.948830 1190.580129
-1203.924357 505.945418 1189.018805
-1204.669630 504.942007 1187.457480
-1205.414902 503.938596 1185.896155
-1206.160174 502.935184 1184.334831
-1206.905447 501.931773 1182.773506
-1207.650719 500.928362 1181.212181
-1208.395991 499.924950 1179.650856
-1209.141263 498.921539 1178.089532
-1209.886536 497.918128 1176.528207
-1210.631808 496.914716 1174.966882
-1211.377080 495.911305 1173.405558
-1212.122353 494.907894 1171.844233
-1212.867625 493.904482 1170.282908
-1213.612897 492.901071 1168.721584
-1214.358170 491.897660 1167.160259
-1215.103442 490.894248 1165.598934
-1215.848714 489.890837 1164.037609
-1216.593987 488.887426 1162.476285
-1217.339259 487.884014 1160.914960
-1218.084531 486.880603 1159.353635
-1218.829804 485.877192 1157.792311
-1219.575076 484.873780 1156.230986
-1220.320348 483.870369 1154.669661
-1221.065621 482.866958 1153.108336
-1221.810893 481.863546 1151.547012
-1222.556165 480.860135 1149.985687
-1223.301438 479.856724 1148.424362
-1224.046710 478.853312 1146.863038
-1224.791982 477.849901 1145.301713
-1225.537255 476.846490 1143.740388
-1226.282527 475.843078 1142.179064
-1227.027799 474.839667 1140.617739
-1227.773072 473.836255 1139.056414
-1228.518344 472.832844 1137.495089
-1229.263616 471.829433 1135.933765
-1230.008889 470.826021 1134.372440
-1230.754161 469.822610 1132.811115
-1231.499433 468.819199 1131.249791
-1232.244706 467.815787 1129.688466
-1232.989978 466.812376 1128.127141
-1233.735250 465.808965 1126.565817
-1234.480523 464.805553 1125.004492
-1235.225795 463.802142 1123.443167
-1235.971067 462.798731 1121.881842
-1236.716340 461.795319 1120.320518
-1237.461612 460.791908 1118.759193
-1238.206884 459.788497 1117.197868
-1238.952157 458.785085 1115.636544
-1239.697429 457.781674 1114.075219
-1240.442701 456.778263 1112.513894
-1241.187974 455.774851 1110.952569
-1241.933246 454.771440 1109.391245
-1242.678518 453.768029 1107.829920
-1243.423790 452.764617 1106.268595
-1244.169063 451.761206 1104.707271
-1244.914335 450.757795 1103.145946
-1245.659607 449.754383 1101.584621
-1246.404880 448.750972 1100.023297
-1247.150152 447.747561 1098.461972
-1247.895424 446.744149 1096.900647
-1248.640697 445.740738 1095.339322
-1249.385969 444.737327 1093.777998
-1250.131241 443.733915 1092.216673
-1250.876514 442.730504 1090.655348
-1251.621786 441.727092 1089.094024
-1252.367058 440.723681 1087.532699
-1253.112331 439.720270 1085.971374
-1253.857603 438.716858 1084.410049
-1254.602875 437.713447 1082.848725
-1255.348148 436.710036 1081.287400
-1256.093420 435.706624 1079.726075
-1256.838692 434.703213 1078.164751
-1257.583965 433.699802 1076.603426
-1258.329237 432.696390 1075.042101
-1259.074509 431.692979 1073.480777
-1259.819782 430.689568 1071.919452
-1260.565054 429.686156 1070.358127
-1261.310326 428.682745 1068.796802
-1262.055599 427.679334 1067.235478
-1262.800871 426.675922 1065.674153
-1263.546143 425.672511 1064.112828
-1264.291416 424.669100 1062.551504
-1265.036688 423.665688 1060.990179
-1265.781960 422.662277 1059.428854
-1266.527233 421.658866 1057.867529
-1267.272505 420.655454 1056.306205
-1268.017777 419.652043 1054.744880
-1268.763050 418.648632 1053.183555
-1269.508322 417.645220 1051.622231
-1270.253594 416.641809 1050.060906
-1270.998867 415.638398 1048.499581
-1271.744139 414.634986 1046.938257
-1272.489411 413.631575 1045.376932
-1273.234684 412.628164 1043.815607
-1273.979956 411.624752 1042.254282
-1274.725228 410.621341 1040.692958
-1275.470501 409.617929 1039.131633
-1276.215773 408.614518 1037.570308
-1276.961045 407.611107 1036.008984
-1277.706317 406.607695 1034.447659
-1278.451590 405.604284 1032.886334
-1279.196862 404.600873 1031.325009
-1279.942134 403.597461 1029.763685
-1280.687407 402.594050 1028.202360
-1281.432679 401.590639 1026.641035
-1282.177951 400.587227 1025.079711
-1282.923224 399.583816 1023.518386
-1283.668496 398.580405 1021.957061
-1284.413768 397.576993 1020.395737
-1285.159041 396.573582 1018.834412
-1285.904313 395.570171 1017.273087
-1286.649585 394.566759 1015.711762
-1287.394858 393.563348 1014.150438
-1288.140130 392.559937 1012.589113
-1288.885402 391.556525 1011.027788
-1289.630675 390.553114 1009.466464
-1290.375947 389.549703 1007.905139
-1291.121219 388.546291 1006.343814
-1291.866492 387.542880 1004.782490
-1292.611764 386.539469 1003.221165
-1293.357036 385.536057 1001.659840
-1294.102309 384.532646 1000.098515
-1294.847581 383.529235 998.537191
-1295.592853 382.525823 996.975866
-1296.338126 381.522412 995.414541
-1297.083398 380.519001 993.853217
-1297.828670 379.515589 992.291892
-1298.573943 378.512178 990.730567
-1299.319215 377.508766 989.169242
-1300.064487 376.505355 987.607918
-1300.809760 375.501944 986.046593
-1301.555032 374.498532 984.485268
-1302.300304 373.495121 982.923944
-1303.045577 372.491710 981.362619
-1303.790849 371.488298 979.801294
-1304.536121 370.484887 978.239970
-1305.281394 369.481476 976.678645
-1306.026666 368.478064 975.117320
-1306.771938 367.474653 973.555995
-1307.517211 366.471242 971.994671
-1308.262483 365.467830 970.433346
-1309.007755 364.464419 968.872021
-1309.753028 363.461008 967.310697
-1310.498300 362.457596 965.749372
-1311.243572 361.454185 964.188047
-1311.988844 360.450774 962.626722
-1312.734117 359.447362 961.065398
-1313.479389 358.443951 959.504073
-1314.224661 357.440540 957.942748
-1314.969934 356.437128 956.381424
-1315.715206 355.433717 954.820099
-1316.460478 354.430306 953.258774
-1317.205751 353.426894 951.697450
-1317.951023 352.423483 950.136125
-1318.696295 351.420072 948.574800
-1319.441568 350.416660 947.013475
-1320.186840 349.413249 945.452151
-1320.932112 348.409838 943.890826
-1321.677385 347.406426 942.329501
-1322.422657 346.403015 940.768177
-1323.167929 345.399603 939.206852
-1323.913202 344.396192 937.645527
-1324.658474 343.392781 936.084202
-1325.403746 342.389369 934.522878
-1326.149019 341.385958 932.961553
-1326.894291 340.382547 931.400228
-1327.639563 339.379135 929.838904
-1328.384836 338.375724 928.277579
-1329.130108 337.372313 926.716254
-1329.875380 336.368901 925.154930
-1330.620653 335.365490 923.593605
-1331.365925 334.362079 922.032280
-1332.111197 333.358667 920.470955
-1332.856470 332.355256 918.909631
-1333.601742 331.351845 917.348306
-1334.347014 330.348433 915.786981
-1335.092287 329.345022 914.225657
-1335.837559 328.341611 912.664332
-1336.582831 327.338199 911.103007
-1337.328104 326.334788 909.541682
-1338.073376 325.331377 907.980358
-1338.818648 324.327965 906.419033
-1339.563921 323.324554 904.857708
-1340.309193 322.321143 903.296384
-1341.054465 321.317731 901.735059
-1341.799738 320.314320 900.173734
-1342.545010 319.310909 898.612410
-1343.290282 318.307497 897.051085
-1344.035554 317.304086 895.489760
-1344.780827 316.300675 893.928435
-1345.526099 315.297263 892.367111
-1346.271371 314.293852 890.805786
-1347.016644 313.290440 889.244461
-1347.761916 312.287029 887.683137
-1348.507188 311.283618 886.121812
-1349.252461 310.280206 884.560487
-1349.997733 309.276795 882.999162
-1350.743005 308.273384 881.437838
-1351.488278 307.269972 879.876513
-1352.233550 306.266561 878.315188
-1352.978822 305.263150 876.753864
-1353.724095 304.259738 875.192539
-1354.469367 303.256327 873.631214
-1355.214639 302.252916 872.069890
-1355.959912 301.249504 870.508565
-1356.705184 300.246093 868.947240
-1357.450456 299.242682 867.385915
-1358.195729 298.239270 865.824591
-1358.941001 297.235859 864.263266
-1359.686273 296.232448 862.701941
-1360.431546 295.229036 861.140617
-1361.176818 294.225625 859.579292
-1361.922090 293.222214 858.017967
-1362.667363 292.218802 856.456643
-1363.412635 291.215391 854.895318
-1364.157907 290.211980 853.333993
-1364.903180 289.208568 851.772668
-1365.648452 288.205157 850.211344
-1366.393724 287.201746 848.650019
-1367.138997 286.198334 847.088694
-1367.884269 285.194923 845.527370
-1368.629541 284.191511 843.966045
-1369.374814 283.188100 842.404720
-1370.120086 282.184689 840.843395
-1371.000000 281.000000 839.000000
-1372.573889 279.794834 838.734577
-1374.147778 278.589669 838.469153
-1375.721667 277.384503 838.203730
-1377.295556 276.179338 837.938306
-1378.869445 274.974172 837.672883
-1380.443333 273.769006 837.407460
-1382.017222 272.563841 837.142036
-1383.591111 271.358675 836.876613
-1385.165000 270.153509 836.611190
-1386.738889 268.948344 836.345766
-1388.312778 267.743178 836.080343
-1389.886667 266.538013 835.814919
-1391.460556 265.332847 835.549496
-1393.034445 264.127681 835.284073
-1394.608334 262.922516 835.018649
-1396.182222 261.717350 834.753226
-1397.756111 260.512185 834.487803
-1399.330000 259.307019 834.222379
-1400.903889 258.101853 833.956956
-1402.477778 256.896688 833.691532
-1404.051667 255.691522 833.426109
-1405.625556 254.486357 833.160686
-1407.199445 253.281191 832.895262
-1408.773334 252.076025 832.629839
-1410.347223 250.870860 832.364416
-1411.921111 249.665694 832.098992
-1413.495000 248.460528 831.833569
-1415.068889 247.255363 831.568145
-1416.642778 246.050197 831.302722
-1418.216667 244.845032 831.037299
-1419.790556 243.639866 830.771875
-1421.364445 242.434700 830.506452
-1422.938334 241.229535 830.241028
-1424.512223 240.024369 829.975605
-1426.086112 238.819204 829.710182
-1427.660000 237.614038 829.444758
-1429.233889 236.408872 829.179335
-1430.807778 235.203707 828.913912
-1432.381667 233.998541 828.648488
-1433.955556 232.793375 828.383065
-1435.529445 231.588210 828.117641
-1437.103334 230.383044 827.852218
-1438.677223 229.177879 827.586795
-1440.251112 227.972713 827.321371
-1441.825001 226.767547 827.055948
-1443.398889 225.562382 826.790525
-1444.972778 224.357216 826.525101
-1446.546667 223.152051 826.259678
-1448.120556 221.946885 825.994254
-1449.694445 220.741719 825.728831
-1451.268334 219.536554 825.463408
-1452.842223 218.331388 825.197984
-1454.416112 217.126223 824.932561
-1455.990001 215.921057 824.667138
-1457.563890 214.715891 824.401714
-1459.137778 213.510726 824.136291
-1460.711667 212.305560 823.870867
-1462.285556 211.100394 823.605444
-1463.859445 209.895229 823.340021
-1465.433334 208.690063 823.074597
-1467.007223 207.484898 822.809174
-1468.581112 206.279732 822.543750
-1470.155001 205.074566 822.278327
-1471.728890 203.869401 822.012904
-1473.302779 202.664235 821.747480
-1474.876668 201.459070 821.482057
-1476.450556 200.253904 821.216634
-1478.024445 199.048738 820.951210
-1479.598334 197.843573 820.685787
-1481.172223 196.638407 820.420363
-1482.746112 195.433241 820.154940
-1484.320001 194.228076 819.889517
-1485.893890 193.022910 819.624093
-1487.467779 191.817745 819.358670
-1489.041668 190.612579 819.093247
-1490.615557 189.407413 818.827823
-1492.189445 188.202248 818.562400
-1493.763334 186.997082 818.296976
-1495.337223 185.791917 818.031553
-1496.911112 184.586751 817.766130
-1498.485001 183.381585 817.500706
-1500.058890 182.176420 817.235283
-1501.632779 180.971254 816.969860
-1503.206668 179.766089 816.704436
-1504.780557 178.560923 816.439013
-1506.354446 177.355757 816.173589
-1507.928334 176.150592 815.908166
-1509.502223 174.945426 815.642743
-1511.076112 173.740260 815.377319
-1512.650001 172.535095 815.111896
-1514.223890 171.329929 814.846473
-1515.797779 170.124764 814.581049
-1517.371668 168.919598 814.315626
-1518.945557 167.714432 814.050202
-1520.519446 166.509267 813.784779
-1522.093335 165.304101 813.519356
-1523.667223 164.098936 813.253932
-1525.241112 162.893770 812.988509
-1526.815001 161.688604 812.723085
-1528.388890 160.483439 812.457662
-1529.962779 159.278273 812.192239
-1531.536668 158.073107 811.926815
-1533.110557 156.867942 811.661392
-1534.684446 155.662776 811.395969
-1536.258335 154.457611 811.130545
-1537.832224 153.252445 810.865122
-1539.406112 152.047279 810.599698
-1540.980001 150.842114 810.334275
-1542.553890 149.636948 810.068852
-1544.127779 148.431783 809.803428
-1545.701668 147.226617 809.538005
-1547.275557 146.021451 809.272582
-1548.849446 144.816286 809.007158
-1550.423335 143.611120 808.741735
-1551.997224 142.405955 808.476311
-1553.571113 141.200789 808.210888
-1555.145002 139.995623 807.945465
-1556.718890 138.790458 807.680041
-1558.292779 137.585292 807.414618
-1559.866668 136.380126 807.149195
-1561.440557 135.174961 806.883771
-1563.014446 133.969795 806.618348
-1564.588335 132.764630 806.352924
-1566.162224 131.559464 806.087501
-1567.736113 130.354298 805.822078
-1569.310002 129.149133 805.556654
-1570.883891 127.943967 805.291231
-1572.457779 126.738802 805.025807
-1574.031668 125.533636 804.760384
-1575.605557 124.328470 804.494961
-1577.179446 123.123305 804.229537
-1578.753335 121.918139 803.964114
-1580.327224 120.712973 803.698691
-1581.901113 119.507808 803.433267
-1583.475002 118.302642 803.167844
-1585.048891 117.097477 802.902420
-1586.622780 115.892311 802.636997
-1588.196668 114.687145 802.371574
-1589.770557 113.481980 802.106150
-1591.344446 112.276814 801.840727
-1592.918335 111.071649 801.575304
-1594.492224 109.866483 801.309880
-1596.066113 108.661317 801.044457
-1597.640002 107.456152 800.779033
-1599.213891 106.250986 800.513610
-1600.787780 105.045821 800.248187
-1602.361669 103.840655 799.982763
-1603.935557 102.635489 799.717340
-1605.509446 101.430324 799.451917
-1607.083335 100.225158 799.186493
-1608.657224 99.019992 798.921070
-1610.231113 97.814827 798.655646
-1611.805002 96.609661 798.390223
-1613.378891 95.404496 798.124800
-1614.952780 94.199330 797.859376
-1616.526669 92.994164 797.593953
-1618.100558 91.788999 797.328529
-1619.674446 90.583833 797.063106
-1621.248335 89.378668 796.797683
-1622.822224 88.173502 796.532259
-1624.396113 86.968336 796.266836
-1625.970002 85.763171 796.001413
-1627.543891 84.558005 795.735989
-1629.117780 83.352839 795.470566
-1630.691669 82.147674 795.205142
-1632.265558 80.942508 794.939719
-1633.839447 79.737343 794.674296
-1635.413335 78.532177 794.408872
-1636.987224 77.327011 794.143449
-1638.561113 76.121846 793.878026
-1640.135002 74.916680 793.612602
-1641.708891 73.711515 793.347179
-1643.282780 72.506349 793.081755
-1644.856669 71.301183 792.816332
-1646.430558 70.096018 792.550909
-1648.004447 68.890852 792.285485
-1649.578336 67.685686 792.020062
-1651.152225 66.480521 791.754639
-1652.726113 65.275355 791.489215
-1654.300002 64.070190 791.223792
-1655.873891 62.865024 790.958368
-1657.447780 61.659858 790.692945
-1659.021669 60.454693 790.427522
-1660.595558 59.249527 790.162098
-1662.169447 58.044362 789.896675
-1663.743336 56.839196 789.631251
-1665.317225 55.634030 789.365828
-1666.891114 54.428865 789.100405
-1668.465002 53.223699 788.834981
-1670.038891 52.018534 788.569558
-1671.612780 50.813368 788.304135
-1673.186669 49.608202 788.038711
-1674.760558 48.403037 787.773288
-1676.334447 47.197871 787.507864
-1677.908336 45.992705 787.242441
-1679.482225 44.787540 786.977018
-1681.056114 43.582374 786.711594
-1682.630003 42.377209 786.446171
-1684.203891 41.172043 786.180748
-1685.777780 39.966877 785.915324
-1687.351669 38.761712 785.649901
-1688.925558 37.556546 785.384477
-1690.499447 36.351381 785.119054
-1692.073336 35.146215 784.853631
-1693.647225 33.941049 784.588207
-1695.221114 32.735884 784.322784
-1696.795003 31.530718 784.057361
-1698.368892 30.325552 783.791937
-1699.942780 29.120387 783.526514
-1701.516669 27.915221 783.261090
-1703.090558 26.710056 782.995667
-1704.664447 25.504890 782.730244
-1706.238336 24.299724 782.464820
-1707.812225 23.094559 782.199397
-1709.386114 21.889393 781.933974
-1710.960003 20.684228 781.668550
-1712.533892 19.479062 781.403127
-1714.107781 18.273896 781.137703
-1715.681669 17.068731 780.872280
-1717.255558 15.863565 780.606857
-1718.829447 14.658400 780.341433
-1720.403336 13.453234 780.076010
-1721.977225 12.248068 779.810586
-1723.551114 11.042903 779.545163
-1725.125003 9.837737 779.279740
-1726.698892 8.632571 779.014316
-1728.272781 7.427406 778.748893
-1729.846670 6.222240 778.483470
-1731.420559 5.017075 778.218046
-1732.994447 3.811909 777.952623
-1734.568336 2.606743 777.687199
-1736.142225 1.401578 777.421776
-1737.716114 0.196412 777.156353
-1739.290003 -1.008753 776.890929
-1740.863892 -2.213919 776.625506
-1742.437781 -3.419085 776.360083
-1744.011670 -4.624250 776.094659
-1745.585559 -5.829416 775.829236
-1747.159448 -7.034582 775.563812
-1748.733336 -8.239747 775.298389
-1750.307225 -9.444913 775.032966
-1751.881114 -10.650078 774.767542
-1753.455003 -11.855244 774.502119
-1755.028892 -13.060410 774.236696
-1756.602781 -14.265575 773.971272
-1758.176670 -15.470741 773.705849
-1759.750559 -16.675906 773.440425
-1761.324448 -17.881072 773.175002
-1762.898337 -19.086238 772.909579
-1764.472225 -20.291403 772.644155
-1766.046114 -21.496569 772.378732
-1767.620003 -22.701734 772.113308
-1769.193892 -23.906900 771.847885
-1770.767781 -25.112066 771.582462
-1772.341670 -26.317231 771.317038
-1773.915559 -27.522397 771.051615
-1775.489448 -28.727563 770.786192
-1777.063337 -29.932728 770.520768
-1778.637226 -31.137894 770.255345
-1780.211114 -32.343059 769.989921
-1781.785003 -33.548225 769.724498
-1783.358892 -34.753391 769.459075
-1784.932781 -35.958556 769.193651
-1786.506670 -37.163722 768.928228
-1788.080559 -38.368887 768.662805
-1789.654448 -39.574053 768.397381
-1791.228337 -40.779219 768.131958
-1792.802226 -41.984384 767.866534
-1794.376115 -43.189550 767.601111
-1795.950003 -44.394716 767.335688
-1797.523892 -45.599881 767.070264
-1799.097781 -46.805047 766.804841
-1800.671670 -48.010212 766.539418
-1802.245559 -49.215378 766.273994
-1803.819448 -50.420544 766.008571
-1805.393337 -51.625709 765.743147
-1806.967226 -52.830875 765.477724
-1808.541115 -54.036040 765.212301
-1810.115004 -55.241206 764.946877
-1811.688892 -56.446372 764.681454
-1813.262781 -57.651537 764.416030
-1814.836670 -58.856703 764.150607
-1816.410559 -60.061868 763.885184
-1817.984448 -61.267034 763.619760
-1819.558337 -62.472200 763.354337
-1821.132226 -63.677365 763.088914
-1822.706115 -64.882531 762.823490
-1824.280004 -66.087697 762.558067
-1825.853893 -67.292862 762.292643
-1827.427782 -68.498028 762.027220
-1829.001670 -69.703193 761.761797
-1830.575559 -70.908359 761.496373
-1832.149448 -72.113525 761.230950
-1833.723337 -73.318690 760.965527
-1835.297226 -74.523856 760.700103
-1836.871115 -75.729021 760.434680
-1838.445004 -76.934187 760.169256
-1840.018893 -78.139353 759.903833
-1841.592782 -79.344518 759.638410
-1843.166671 -80.549684 759.372986
-1844.740559 -81.754850 759.107563
-1846.314448 -82.960015 758.842140
-1847.888337 -84.165181 758.576716
-1849.462226 -85.370346 758.311293
-1851.036115 -86.575512 758.045869
-1852.610004 -87.780678 757.780446
-1854.183893 -88.985843 757.515023
-1855.757782 -90.191009 757.249599
-1857.331671 -91.396174 756.984176
-1858.905560 -92.601340 756.718752
-1860.479448 -93.806506 756.453329
-1862.053337 -95.011671 756.187906
-1863.627226 -96.216837 755.922482
-1865.201115 -97.422002 755.657059
-1866.775004 -98.627168 755.391636
-1868.348893 -99.832334 755.126212
-1869.922782 -101.037499 754.860789
-1871.496671 -102.242665 754.595365
-1873.070560 -103.447831 754.329942
-1874.644449 -104.652996 754.064519
-1876.218337 -105.858162 753.799095
-1877.792226 -107.063327 753.533672
-1879.366115 -108.268493 753.268249
-1880.940004 -109.473659 753.002825
-1882.513893 -110.678824 752.737402
-1884.087782 -111.883990 752.471978
-1885.661671 -113.089155 752.206555
-1887.235560 -114.294321 751.941132
-1888.809449 -115.499487 751.675708
-1890.383338 -116.704652 751.410285
-1891.957226 -117.909818 751.144862
-1893.531115 -119.114984 750.879438
-1895.105004 -120.320149 750.614015
-1896.678893 -121.525315 750.348591
-1898.252782 -122.730480 750.083168
-1899.826671 -123.935646 749.817745
-1901.400560 -125.140812 749.552321
-1902.974449 -126.345977 749.286898
-1904.548338 -127.551143 749.021474
-1906.122227 -128.756308 748.756051
-1907.696115 -129.961474 748.490628
-1909.270004 -131.166640 748.225204
-1910.843893 -132.371805 747.959781
-1912.417782 -133.576971 747.694358
-1913.991671 -134.782136 747.428934
-1915.565560 -135.987302 747.163511
-1917.139449 -137.192468 746.898087
-1918.713338 -138.397633 746.632664
-1920.287227 -139.602799 746.367241
-1921.861116 -140.807965 746.101817
-1923.435005 -142.013130 745.836394
-1925.008893 -143.218296 745.570971
-1926.582782 -144.423461 745.305547
-1928.156671 -145.628627 745.040124
-1929.730560 -146.833793 744.774700
-1931.304449 -148.038958 744.509277
-1932.878338 -149.244124 744.243854
-1934.452227 -150.449289 743.978430
-1936.026116 -151.654455 743.713007
-1937.600005 -152.859621 743.447584
-1939.173894 -154.064786 743.182160
-1940.747782 -155.269952 742.916737
-1942.321671 -156.475118 742.651313
-1943.895560 -157.680283 742.385890
-1945.469449 -158.885449 742.120467
-1947.043338 -160.090614 741.855043
-1948.617227 -161.295780 741.589620
-1950.191116 -162.500946 741.324197
-1951.765005 -163.706111 741.058773
-1953.338894 -164.911277 740.793350
-1954.912783 -166.116442 740.527926
-1956.486671 -167.321608 740.262503
-1958.060560 -168.526774 739.997080
-1959.634449 -169.731939 739.731656
-1961.208338 -170.937105 739.466233
-1962.782227 -172.142270 739.200809
-1964.356116 -173.347436 738.935386
-1965.930005 -174.552602 738.669963
-1967.503894 -175.757767 738.404539
-1969.077783 -176.962933 738.139116
-1970.651672 -178.168099 737.873693
-1972.225560 -179.373264 737.608269
-1973.799449 -180.578430 737.342846
-1975.373338 -181.783595 737.077422
-1976.947227 -182.988761 736.811999
-1978.521116 -184.193927 736.546576
-1980.095005 -185.399092 736.281152
-1981.668894 -186.604258 736.015729
-1983.242783 -187.809423 735.750306
-1984.816672 -189.014589 735.484882
-1986.390561 -190.219755 735.219459
-1987.964449 -191.424920 734.954035
-1989.538338 -192.630086 734.688612
-1991.112227 -193.835252 734.423189
-1992.686116 -195.040417 734.157765
-1994.260005 -196.245583 733.892342
-1995.833894 -197.450748 733.626919
-1997.407783 -198.655914 733.361495
-1998.981672 -199.861080 733.096072
-2000.555561 -201.066245 732.830648
-2002.129450 -202.271411 732.565225
-2003.703339 -203.476576 732.299802
-2005.277227 -204.681742 732.034378
-2006.851116 -205.886908 731.768955
-2008.425005 -207.092073 731.503531
-2009.998894 -208.297239 731.238108
-2011.572783 -209.502404 730.972685
-2013.146672 -210.707570 730.707261
-2014.720561 -211.912736 730.441838
-2016.294450 -213.117901 730.176415
-2017.868339 -214.323067 729.910991
-2019.442228 -215.528233 729.645568
-2021.016116 -216.733398 729.380144
-2022.590005 -217.938564 729.114721
-2024.163894 -219.143729 728.849298
-2025.737783 -220.348895 728.583874
-2027.311672 -221.554061 728.318451
-2028.885561 -222.759226 728.053028
-2030.459450 -223.964392 727.787604
-2032.033339 -225.169557 727.522181
-2033.607228 -226.374723 727.256757
-2035.181117 -227.579889 726.991334
-2036.755005 -228.785054 726.725911
-2038.328894 -229.990220 726.460487
-2039.902783 -231.195386 726.195064
-2041.476672 -232.400551 725.929641
-2043.050561 -233.605717 725.664217
-2044.624450 -234.810882 725.398794
-2046.198339 -236.016048 725.133370
-2047.772228 -237.221214 724.867947
-2049.346117 -238.426379 724.602524
-2050.920006 -239.631545 724.337100
-2052.493894 -240.836710 724.071677
-2054.067783 -242.041876 723.806253
-2055.641672 -243.247042 723.540830
-2057.215561 -244.452207 723.275407
-2058.789450 -245.657373 723.009983
-2060.363339 -246.862538 722.744560
-2061.937228 -248.067704 722.479137
-2063.511117 -249.272870 722.213713
-2065.085006 -250.478035 721.948290
-2066.658895 -251.683201 721.682866
-2068.232783 -252.888367 721.417443
-2069.806672 -254.093532 721.152020
-2071.380561 -255.298698 720.886596
-2072.954450 -256.503863 720.621173
-2074.528339 -257.709029 720.355750
-2076.102228 -258.914195 720.090326
-2077.676117 -260.119360 719.824903
-2079.250006 -261.324526 719.559479
-2080.823895 -262.529691 719.294056
-2082.397784 -263.734857 719.028633
-2083.971672 -264.940023 718.763209
-2085.545561 -266.145188 718.497786
-2087.119450 -267.350354 718.232363
-2088.693339 -268.555520 717.966939
-2090.267228 -269.760685 717.701516
-2091.841117 -270.965851 717.436092
-2093.415006 -272.171016 717.170669
-2094.988895 -273.376182 716.905246
-2096.562784 -274.581348 716.639822
-2098.136673 -275.786513 716.374399
-2099.710562 -276.991679 716.108975
-2101.284450 -278.196844 715.843552
-2102.858339 -279.402010 715.578129
-2104.432228 -280.607176 715.312705
-2106.006117 -281.812341 715.047282
-2107.580006 -283.017507 714.781859
-2109.153895 -284.222673 714.516435
-2110.727784 -285.427838 714.251012
-2112.301673 -286.633004 713.985588
-2113.875562 -287.838169 713.720165
-2115.449451 -289.043335 713.454742
-2117.023339 -290.248501 713.189318
-2118.597228 -291.453666 712.923895
-2120.171117 -292.658832 712.658472
-2121.745006 -293.863997 712.393048
-2123.318895 -295.069163 712.127625
-2124.892784 -296.274329 711.862201
-2126.466673 -297.479494 711.596778
-2128.040562 -298.684660 711.331355
-2129.614451 -299.889825 711.065931
-2131.188340 -301.094991 710.800508
-2132.762228 -302.300157 710.535085
-2134.336117 -303.505322 710.269661
-2135.910006 -304.710488 710.004238
-2137.483895 -305.915654 709.738814
-2139.057784 -307.120819 709.473391
-2140.631673 -308.325985 709.207968
-2142.205562 -309.531150 708.942544
-2143.779451 -310.736316 708.677121
-2145.353340 -311.941482 708.411698
-2146.927229 -313.146647 708.146274
-2148.501117 -314.351813 707.880851
-2150.075006 -315.556978 707.615427
-2151.648895 -316.762144 707.350004
-2153.222784 -317.967310 707.084581
-2154.796673 -319.172475 706.819157
-2156.370562 -320.377641 706.553734
-2157.944451 -321.582807 706.288310
-2159.518340 -322.787972 706.022887
-2161.092229 -323.993138 705.757464
-2162.666118 -325.198303 705.492040
-2164.240006 -326.403469 705.226617
-2165.813895 -327.608635 704.961194
-2167.387784 -328.813800 704.695770
-2168.961673 -330.018966 704.430347
-2170.535562 -331.224131 704.164923
-2172.109451 -332.429297 703.899500
-2173.683340 -333.634463 703.634077
-2175.257229 -334.839628 703.368653
-2176.831118 -336.044794 703.103230
-2178.405007 -337.249959 702.837807
-2179.978896 -338.455125 702.572383
-2181.552784 -339.660291 702.306960
-2183.126673 -340.865456 702.041536
-2184.700562 -342.070622 701.776113
-2186.274451 -343.275788 701.510690
-2187.848340 -344.480953 701.245266
-2189.422229 -345.686119 700.979843
-2190.996118 -346.891284 700.714420
-2192.570007 -348.096450 700.448996
-2194.143896 -349.301616 700.183573
-2195.717785 -350.506781 699.918149
-2197.291673 -351.711947 699.652726
-2198.865562 -352.917112 699.387303
-2200.439451 -354.122278 699.121879
-2202.013340 -355.327444 698.856456
-2203.587229 -356.532609 698.591032
-2205.161118 -357.737775 698.325609
-2206.735007 -358.942941 698.060186
-2208.308896 -360.148106 697.794762
-2209.882785 -361.353272 697.529339
-2211.456674 -362.558437 697.263916
-2213.030562 -363.763603 696.998492
-2214.604451 -364.968769 696.733069
-2216.178340 -366.173934 696.467645
-2217.752229 -367.379100 696.202222
-2219.326118 -368.584265 695.936799
-2220.900007 -369.789431 695.671375
-2222.473896 -370.994597 695.405952
-2224.047785 -372.199762 695.140529
-2225.621674 -373.404928 694.875105
-2227.195563 -374.610093 694.609682
-2228.769451 -375.815259 694.344258
-2230.343340 -377.020425 694.078835
-2231.917229 -378.225590 693.813412
-2233.491118 -379.430756 693.547988
-2235.065007 -380.635922 693.282565
-2236.638896 -381.841087 693.017142
-2238.212785 -383.046253 692.751718
-2239.786674 -384.251418 692.486295
-2241.360563 -385.456584 692.220871
-2242.934452 -386.661750 691.955448
-2244.508340 -387.866915 691.690025
-2246.082229 -389.072081 691.424601
-2247.656118 -390.277246 691.159178
-2249.230007 -391.482412 690.893754
-2250.803896 -392.687578 690.628331
-2252.377785 -393.892743 690.362908
-2253.951674 -395.097909 690.097484
-2255.525563 -396.303075 689.832061
-2257.099452 -397.508240 689.566638
-2258.673341 -398.713406 689.301214
-2260.247229 -399.918571 689.035791
-2261.821118 -401.123737 688.770367
-2263.395007 -402.328903 688.504944
-2264.968896 -403.534068 688.239521
-2266.542785 -404.739234 687.974097
-2268.116674 -405.944399 687.708674
-2269.690563 -407.149565 687.443251
-2271.264452 -408.354731 687.177827
-2272.838341 -409.559896 686.912404
-2274.412230 -410.765062 686.646980
-2275.986119 -411.970227 686.381557
-2277.560007 -413.175393 686.116134
-2279.133896 -414.380559 685.850710
-2280.707785 -415.585724 685.585287
-2282.281674 -416.790890 685.319864
-2283.855563 -417.996056 685.054440
-2285.429452 -419.201221 684.789017
-2287.003341 -420.406387 684.523593
-2288.577230 -421.611552 684.258170
-2290.151119 -422.816718 683.992747
-2291.725008 -424.021884 683.727323
-2293.298896 -425.227049 683.461900
-2294.872785 -426.432215 683.196476
-2296.446674 -427.637380 682.931053
-2298.020563 -428.842546 682.665630
-2299.594452 -430.047712 682.400206
-2301.168341 -431.252877 682.134783
-2302.742230 -432.458043 681.869360
-2304.316119 -433.663209 681.603936
-2305.890008 -434.868374 681.338513
-2307.463897 -436.073540 681.073089
-2309.037785 -437.278705 680.807666
-2310.611674 -438.483871 680.542243
-2312.185563 -439.689037 680.276819
-2313.759452 -440.894202 680.011396
-2315.333341 -442.099368 679.745973
-2316.907230 -443.304533 679.480549
-2318.481119 -444.509699 679.215126
-2320.055008 -445.714865 678.949702
-2321.628897 -446.920030 678.684279
-2323.202786 -448.125196 678.418856
-2324.776674 -449.330361 678.153432
-2326.350563 -450.535527 677.888009
-2327.924452 -451.740693 677.622586
-2329.498341 -452.945858 677.357162
-2331.072230 -454.151024 677.091739
-2332.646119 -455.356190 676.826315
-2334.220008 -456.561355 676.560892
-2335.793897 -457.766521 676.295469
-2337.367786 -458.971686 676.030045
-2338.941675 -460.176852 675.764622
-2340.515563 -461.382018 675.499199
-2342.089452 -462.587183 675.233775
-2343.663341 -463.792349 674.968352
-2345.237230 -464.997514 674.702928
-2346.811119 -466.202680 674.437505
-2348.385008 -467.407846 674.172082
-2349.958897 -468.613011 673.906658
-2351.532786 -469.818177 673.641235
-2353.106675 -471.023343 673.375811
-2354.680564 -472.228508 673.110388
-2356.254452 -473.433674 672.844965
-2357.828341 -474.638839 672.579541
-2359.402230 -475.844005 672.314118
-2360.976119 -477.049171 672.048695
-2362.550008 -478.254336 671.783271
-2364.123897 -479.459502 671.517848
-2365.697786 -480.664667 671.252424
-2367.271675 -481.869833 670.987001
-2368.845564 -483.074999 670.721578
-2370.419453 -484.280164 670.456154
-2371.993342 -485.485330 670.190731
-2373.567230 -486.690495 669.925308
-2375.141119 -487.895661 669.659884
-2376.715008 -489.100827 669.394461
-2378.288897 -490.305992 669.129037
-2379.862786 -491.511158 668.863614
-2381.436675 -492.716324 668.598191
-2383.010564 -493.921489 668.332767
-2384.584453 -495.126655 668.067344
-2386.158342 -496.331820 667.801921
-2387.732231 -497.536986 667.536497
-2389.306119 -498.742152 667.271074
-2390.880008 -499.947317 667.005650
-2392.453897 -501.152483 666.740227
-2394.027786 -502.357648 666.474804
-2395.601675 -503.562814 666.209380
-2397.175564 -504.767980 665.943957
-2398.749453 -505.973145 665.678533
-2400.323342 -507.178311 665.413110
-2401.897231 -508.383477 665.147687
-2403.471120 -509.588642 664.882263
-2405.045008 -510.793808 664.616840
-2406.618897 -511.998973 664.351417
-2408.192786 -513.204139 664.085993
-2409.766675 -514.409305 663.820570
-2411.340564 -515.614470 663.555146
-2412.914453 -516.819636 663.289723
-2414.488342 -518.024801 663.024300
-2416.062231 -519.229967 662.758876
-2417.636120 -520.435133 662.493453
-2419.210009 -521.640298 662.228030
-2420.783897 -522.845464 661.962606
-2422.357786 -524.050629 661.697183
-2423.931675 -525.255795 661.431759
-2425.505564 -526.460961 661.166336
-2427.079453 -527.666126 660.900913
-2428.653342 -528.871292 660.635489
-2430.227231 -530.076458 660.370066
-2431.801120 -531.281623 660.104643
-2433.375009 -532.486789 659.839219
-2434.948898 -533.691954 659.573796
-2436.522786 -534.897120 659.308372
-2438.096675 -536.102286 659.042949
-2439.670564 -537.307451 658.777526
-2441.244453 -538.512617 658.512102
-2442.818342 -539.717782 658.246679
-2444.392231 -540.922948 657.981255
-2445.966120 -542.128114 657.715832
-2447.540009 -543.333279 657.450409
-2449.113898 -544.538445 657.184985
-2450.687787 -545.743611 656.919562
-2452.261676 -546.948776 656.654139
-2453.835564 -548.153942 656.388715
-2455.409453 -549.359107 656.123292
-2456.983342 -550.564273 655.857868
-2458.557231 -551.769439 655.592445
-2460.131120 -552.974604 655.327022
-2461.705009 -554.179770 655.061598
-2463.278898 -555.384935 654.796175
-2464.852787 -556.590101 654.530752
-2468.000000 -559.000000 654.000000
-2468.004932 -558.568490 652.047111
-2468.009863 -558.136981 650.094222
-2468.014795 -557.705471 648.141333
-2468.019726 -557.273962 646.188444
-2468.024658 -556.842452 644.235555
-2468.029589 -556.410943 642.282666
-2468.034521 -555.979433 640.329777
-2468.039452 -555.547924 638.376889
-2468.044384 -555.116414 636.424000
-2468.049315 -554.684905 634.471111
-2468.054247 -554.253395 632.518222
-2468.059178 -553.821885 630.565333
-2468.064110 -553.390376 628.612444
-2468.069042 -552.958866 626.659555
-2468.073973 -552.527357 624.706666
-2468.078905 -552.095847 622.753777
-2468.083836 -551.664338 620.800888
-2468.088768 -551.232828 618.847999
-2468.093699 -550.801319 616.895110
-2468.098631 -550.369809 614.942221
-2468.103562 -549.938299 612.989332
-2468.108494 -549.506790 611.036443
-2468.113425 -549.075280 609.083555
-2468.118357 -548.643771 607.130666
-2468.123288 -548.212261 605.177777
-2468.128220 -547.780752 603.224888
-2468.133152 -547.349242 601.271999
-2468.138083 -546.917733 599.319110
-2468.143015 -546.486223 597.366221
-2468.147946 -546.054714 595.413332
-2468.152878 -545.623204 593.460443
-2468.157809 -545.191694 591.507554
-2468.162741 -544.760185 589.554665
-2468.167672 -544.328675 587.601776
-2468.172604 -543.897166 585.648887
-2468.177535 -543.465656 583.695998
-2468.182467 -543.034147 581.743109
-2468.187398 -542.602637 579.790221
-2468.192330 -542.171128 577.837332
-2468.197262 -541.739618 575.884443
-2468.202193 -541.308108 573.931554
-2468.207125 -540.876599 571.978665
-2468.212056 -540.445089 570.025776
-2468.216988 -540.013580 568.072887
-2468.221919 -539.582070 566.119998
-2468.226851 -539.150561 564.167109
-2468.231782 -538.719051 562.214220
-2468.236714 -538.287542 560.261331
-2468.241645 -537.856032 558.308442
-2468.246577 -537.424523 556.355553
-2468.251508 -536.993013 554.402664
-2468.256440 -536.561503 552.449775
-2468.261371 -536.129994 550.496887
-2468.266303 -535.698484 548.543998
-2468.271235 -535.266975 546.591109
-2468.276166 -534.835465 544.638220
-2468.281098 -534.403956 542.685331
-2468.286029 -533.972446 540.732442
-2468.290961 -533.540937 538.779553
-2468.295892 -533.109427 536.826664
-2468.300824 -532.677917 534.873775
-2468.305755 -532.246408 532.920886
-2468.310687 -531.814898 530.967997
-2468.315618 -531.383389 529.015108
-2468.320550 -530.951879 527.062219
-2468.325481 -530.520370 525.109330
-2468.330413 -530.088860 523.156441
-2468.335345 -529.657351 521.203552
-2468.340276 -529.225841 519.250664
-2468.345208 -528.794332 517.297775
-2468.350139 -528.362822 515.344886
-2468.355071 -527.931312 513.391997
-2468.360002 -527.499803 511.439108
-2468.364934 -527.068293 509.486219
-2468.369865 -526.636784 507.533330
-2468.374797 -526.205274 505.580441
-2468.379728 -525.773765 503.627552
-2468.384660 -525.342255 501.674663
-2468.389591 -524.910746 499.721774
-2468.394523 -524.479236 497.768885
-2468.399455 -524.047726 495.815996
-2468.404386 -523.616217 493.863107
-2468.409318 -523.184707 491.910218
