-453.406572 216.909139 223.715265
-454.705473 217.816893 224.935444
-456.004374 218.724648 226.155624
-457.303275 219.632402 227.375804
-458.602176 220.540157 228.595983
-459.901076 221.447911 229.816163
-461.199977 222.355666 231.036342
-462.498878 223.263421 232.256522
-463.797779 224.171175 233.476701
-465.096680 225.078930 234.696881
-466.395581 225.986684 235.917061
-467.694482 226.894439 237.137240
-468.993382 227.802193 238.357420
-470.292283 228.709948 239.577599
-471.591184 229.617703 240.797779
-472.890085 230.525457 242.017959
-475.000000 232.000000 244.000000
-475.193587 233.857001 243.283011
-475.387174 235.714001 242.566023
-475.580761 237.571002 241.849034
-475.774348 239.428003 241.132045
-475.967935 241.285003 240.415057
-476.161522 243.142004 239.698068
-476.355109 244.999004 238.981079
-476.548696 246.856005 238.264091
-476.742282 248.713006 237.547102
-476.935869 250.570006 236.830113
-477.129456 252.427007 236.113125
-477.323043 254.284008 235.396136
-477.516630 256.141008 234.679147
-477.710217 257.998009 233.962159
-477.903804 259.855010 233.245170
-478.097391 261.712010 232.528181
-478.290978 263.569011 231.811193
-478.484565 265.426011 231.094204
-478.678152 267.283012 230.377215
-478.871739 269.140013 229.660227
-479.065326 270.997013 228.943238
-479.258913 272.854014 228.226249
-479.452500 274.711015 227.509261
-479.646087 276.568015 226.792272
-479.839673 278.425016 226.075283
-480.033260 280.282016 225.358295
-480.226847 282.139017 224.641306
-480.420434 283.996018 223.924317
-480.614021 285.853018 223.207329
-480.807608 287.710019 222.490340
-481.001195 289.567020 221.773351
-481.194782 291.424020 221.056363
-481.388369 293.281021 220.339374
-481.581956 295.138022 219.622385
-481.775543 296.995022 218.905397
-481.969130 298.852023 218.188408
-482.162717 300.709023 217.471420
-482.356304 302.566024 216.754431
-482.549891 304.423025 216.037442
-482.743478 306.280025 215.320454
-482.937064 308.137026 214.603465
-483.130651 309.994027 213.886476
-483.324238 311.851027 213.169488
-483.517825 313.708028 212.452499
-483.711412 315.565029 211.735510
-483.904999 317.422029 211.018522
-484.098586 319.279030 210.301533
-484.292173 321.136030 209.584544
-484.485760 322.993031 208.867556
-484.679347 324.850032 208.150567
-484.872934 326.707032 207.433578
-485.066521 328.564033 206.716590
-485.260108 330.421034 205.999601
-485.453695 332.278034 205.282612
-485.647282 334.135035 204.565624
-485.840869 335.992036 203.848635
-486.034456 337.849036 203.131646
-486.228042 339.706037 202.414658
-486.421629 341.563037 201.697669
-486.615216 343.420038 200.980680
-486.808803 345.277039 200.263692
-487.002390 347.134039 199.546703
-487.195977 348.991040 198.829714
-487.389564 350.848041 198.112726
-487.583151 352.705041 197.395737
-487.776738 354.562042 196.678748
-487.970325 356.419042 195.961760
-488.163912 358.276043 195.244771
-488.357499 360.133044 194.527782
-488.551086 361.990044 193.810794
-488.744673 363.847045 193.093805
-488.938260 365.704046 192.376816
-489.131847 367.561046 191.659828
-489.325433 369.418047 190.942839
-489.519020 371.275048 190.225850
-489.712607 373.132048 189.508862
-489.906194 374.989049 188.791873
-490.099781 376.846049 188.074884
-490.293368 378.703050 187.357896
-490.486955 380.560051 186.640907
-490.680542 382.417051 185.923918
-490.874129 384.274052 185.206930
-491.067716 386.131053 184.489941
-491.261303 387.988053 183.772952
-491.454890 389.845054 183.055964
-491.648477 391.702055 182.338975
-491.842064 393.559055 181.621986
-492.035651 395.416056 180.904998
-492.229238 397.273056 180.188009
-492.422824 399.130057 179.471020
-492.616411 400.987058 178.754032
-492.809998 402.844058 178.037043
-493.003585 404.701059 177.320054
-493.197172 406.558060 176.603066
-493.390759 408.415060 175.886077
-493.584346 410.272061 175.169088
-493.777933 412.129062 174.452100
-493.971520 413.986062 173.735111
-494.165107 415.843063 173.018122
-494.358694 417.700063 172.301134
-494.552281 419.557064 171.584145
-494.745868 421.414065 170.867156
-494.939455 423.271065 170.150168
-495.133042 425.128066 169.433179
-495.326629 426.985067 168.716191
-495.520216 428.842067 167.999202
-495.713802 430.699068 167.282213
-495.907389 432.556069 166.565225
-496.100976 434.413069 165.848236
-496.294563 436.270070 165.131247
-496.488150 438.127070 164.414259
-496.681737 439.984071 163.697270
-496.875324 441.841072 162.980281
-497.068911 443.698072 162.263293
-497.262498 445.555073 161.546304
-497.456085 447.412074 160.829315
-497.649672 449.269074 160.112327
-497.843259 451.126075 159.395338
-498.036846 452.983075 158.678349
-498.230433 454.840076 157.961361
-498.424020 456.697077 157.244372
-498.617607 458.554077 156.527383
-498.811193 460.411078 155.810395
-499.004780 462.268079 155.093406
-499.198367 464.125079 154.376417
-499.391954 465.982080 153.659429
-499.585541 467.839081 152.942440
-499.779128 469.696081 152.225451
-499.972715 471.553082 151.508463
-500.166302 473.410082 150.791474
-500.359889 475.267083 150.074485
-500.553476 477.124084 149.357497
-500.747063 478.981084 148.640508
-500.940650 480.838085 147.923519
-501.134237 482.695086 147.206531
-501.327824 484.552086 146.489542
-501.521411 486.409087 145.772553
-501.714998 488.266088 145.055565
-502.000000 491.000000 144.000000
-503.419608 491.749514 145.192872
-504.839215 492.499028 146.385744
-506.258823 493.248542 147.578615
-507.678431 493.998055 148.771487
-509.098038 494.747569 149.964359
-510.517646 495.497083 151.157231
-511.937254 496.246597 152.350102
-513.356861 496.996111 153.542974
-514.776469 497.745625 154.735846
-516.196076 498.495139 155.928718
-517.615684 499.244653 157.121590
-519.035292 499.994166 158.314461
-520.454899 500.743680 159.507333
-521.874507 501.493194 160.700205
-523.294115 502.242708 161.893077
-524.713722 502.992222 163.085949
-526.133330 503.741736 164.278820
-527.552938 504.491250 165.471692
-528.972545 505.240764 166.664564
-530.392153 505.990277 167.857436
-531.811761 506.739791 169.050307
-533.231368 507.489305 170.243179
-534.650976 508.238819 171.436051
-536.070584 508.988333 172.628923
-537.490191 509.737847 173.821795
-538.909799 510.487361 175.014666
-540.329406 511.236875 176.207538
-541.749014 511.986388 177.400410
-543.168622 512.735902 178.593282
-544.588229 513.485416 179.786153
-546.007837 514.234930 180.979025
-547.427445 514.984444 182.171897
-548.847052 515.733958 183.364769
-550.266660 516.483472 184.557641
-551.686268 517.232985 185.750512
-553.105875 517.982499 186.943384
-554.525483 518.732013 188.136256
-555.945091 519.481527 189.329128
-557.364698 520.231041 190.522000
-558.784306 520.980555 191.714871
-560.203913 521.730069 192.907743
-561.623521 522.479583 194.100615
-563.043129 523.229096 195.293487
-564.462736 523.978610 196.486358
-565.882344 524.728124 197.679230
-568.291325 526.000000 199.703455
-568.936988 528.559156 199.555183
-570.885187 528.620095 199.107068
-572.833386 528.681034 198.658953
-574.781585 528.741974 198.210838
-576.729784 528.802913 197.762723
-578.677983 528.863852 197.314608
-580.626182 528.924792 196.866493
-582.574381 528.985731 196.418378
-584.522580 529.046671 195.970263
-586.470779 529.107610 195.522148
-588.418978 529.168549 195.074033
-590.367177 529.229489 194.625918
-592.315376 529.290428 194.177803
-594.263575 529.351368 193.729688
-596.211774 529.412307 193.281574
-598.159973 529.473246 192.833459
-600.108172 529.534186 192.385344
-602.056371 529.595125 191.937229
-604.004570 529.656065 191.489114
-605.952769 529.717004 191.040999
-607.900968 529.777943 190.592884
-609.849167 529.838883 190.144769
-611.797366 529.899822 189.696654
-615.000000 530.000000 188.960000
-616.829053 530.465159 189.621962
-618.658105 530.930319 190.283924
-620.487158 531.395478 190.945886
-622.316210 531.860637 191.607848
-624.145263 532.325797 192.269810
-625.974315 532.790956 192.931772
-627.803368 533.256115 193.593734
-629.632420 533.721275 194.255696
-631.461473 534.186434 194.917658
-633.290525 534.651594 195.579620
-635.119578 535.116753 196.241582
-636.948630 535.581912 196.903544
-638.777683 536.047072 197.565505
-640.606735 536.512231 198.227467
-642.435788 536.977390 198.889429
-644.264840 537.442550 199.551391
-646.093893 537.907709 200.213353
-647.922945 538.372868 200.875315
-649.751998 538.838028 201.537277
-651.581050 539.303187 202.199239
-653.410103 539.768346 202.861201
-655.239156 540.233506 203.523163
-657.068208 540.698665 204.185125
-658.897261 541.163825 204.847087
-660.726313 541.628984 205.509049
-662.555366 542.094143 206.171011
-664.384418 542.559303 206.832973
-666.213471 543.024462 207.494935
-668.042523 543.489621 208.156897
-669.871576 543.954781 208.818859
-671.700628 544.419940 209.480821
-673.529681 544.885099 210.142783
-675.358733 545.350259 210.804745
-677.187786 545.815418 211.466707
-679.016838 546.280577 212.128669
-680.845891 546.745737 212.790631
-682.674943 547.210896 213.452593
-684.503996 547.676055 214.114555
-686.333048 548.141215 214.776516
-688.162101 548.606374 215.438478
-689.991154 549.071534 216.100440
-691.820206 549.536693 216.762402
-693.649259 550.001852 217.424364
-695.478311 550.467012 218.086326
-697.307364 550.932171 218.748288
-699.136416 551.397330 219.410250
-700.965469 551.862490 220.072212
-702.794521 552.327649 220.734174
-704.623574 552.792808 221.396136
-706.452626 553.257968 222.058098
-708.281679 553.723127 222.720060
-710.110731 554.188286 223.382022
-711.939784 554.653446 224.043984
-713.768836 555.118605 224.705946
-715.597889 555.583765 225.367908
-717.426941 556.048924 226.029870
-719.255994 556.514083 226.691832
-721.085046 556.979243 227.353794
-722.914099 557.444402 228.015756
-724.743151 557.909561 228.677718
-726.572204 558.374721 229.339680
-728.401257 558.839880 230.001642
-730.230309 559.305039 230.663604
-732.059362 559.770199 231.325565
-733.888414 560.235358 231.987527
-735.717467 560.700517 232.649489
-737.546519 561.165677 233.311451
-739.375572 561.630836 233.973413
-741.204624 562.095995 234.635375
-743.033677 562.561155 235.297337
-744.862729 563.026314 235.959299
-746.691782 563.491474 236.621261
-748.520834 563.956633 237.283223
-750.349887 564.421792 237.945185
-752.178939 564.886952 238.607147
-754.007992 565.352111 239.269109
-755.837044 565.817270 239.931071
-757.666097 566.282430 240.593033
-759.495149 566.747589 241.254995
-761.324202 567.212748 241.916957
-763.153254 567.677908 242.578919
-764.982307 568.143067 243.240881
-766.811360 568.608226 243.902843
-768.640412 569.073386 244.564805
-770.469465 569.538545 245.226767
-772.298517 570.003705 245.888729
-774.127570 570.468864 246.550691
-775.956622 570.934023 247.212653
-777.785675 571.399183 247.874615
-779.614727 571.864342 248.536576
-781.443780 572.329501 249.198538
-783.272832 572.794661 249.860500
-785.101885 573.259820 250.522462
-786.930937 573.724979 251.184424
-788.759990 574.190139 251.846386
-790.589042 574.655298 252.508348
-792.418095 575.120457 253.170310
-794.247147 575.585617 253.832272
-796.076200 576.050776 254.494234
-797.905252 576.515935 255.156196
-799.734305 576.981095 255.818158
-801.563357 577.446254 256.480120
-803.392410 577.911414 257.142082
-805.221463 578.376573 257.804044
-807.050515 578.841732 258.466006
-808.879568 579.306892 259.127968
-810.708620 579.772051 259.789930
-812.537673 580.237210 260.451892
-814.366725 580.702370 261.113854
-816.195778 581.167529 261.775816
-818.024830 581.632688 262.437778
-819.853883 582.097848 263.099740
-821.682935 582.563007 263.761702
-823.511988 583.028166 264.423664
-825.341040 583.493326 265.085625
-827.170093 583.958485 265.747587
-828.999145 584.423645 266.409549
-830.828198 584.888804 267.071511
-832.657250 585.353963 267.733473
-834.486303 585.819123 268.395435
-836.315355 586.284282 269.057397
-838.144408 586.749441 269.719359
-839.973461 587.214601 270.381321
-841.802513 587.679760 271.043283
-843.631566 588.144919 271.705245
-845.460618 588.610079 272.367207
-847.289671 589.075238 273.029169
-849.118723 589.540397 273.691131
-850.947776 590.005557 274.353093
-852.776828 590.470716 275.015055
-854.605881 590.935875 275.677017
-856.434933 591.401035 276.338979
-858.263986 591.866194 277.000941
-860.093038 592.331354 277.662903
-861.922091 592.796513 278.324865
-863.751143 593.261672 278.986827
-865.580196 593.726832 279.648789
-867.409248 594.191991 280.310751
-869.238301 594.657150 280.972713
-871.067353 595.122310 281.634675
-872.896406 595.587469 282.296636
-874.725458 596.052628 282.958598
-876.554511 596.517788 283.620560
-878.383564 596.982947 284.282522
-880.212616 597.448106 284.944484
-882.041669 597.913266 285.606446
-883.870721 598.378425 286.268408
-885.699774 598.843585 286.930370
-887.528826 599.308744 287.592332
-889.357879 599.773903 288.254294
-891.186931 600.239063 288.916256
-893.015984 600.704222 289.578218
-894.845036 601.169381 290.240180
-896.674089 601.634541 290.902142
-898.503141 602.099700 291.564104
-900.332194 602.564859 292.226066
-902.161246 603.030019 292.888028
-903.990299 603.495178 293.549990
-905.819351 603.960337 294.211952
-907.648404 604.425497 294.873914
-909.477456 604.890656 295.535876
-911.306509 605.355815 296.197838
-913.135561 605.820975 296.859800
-914.964614 606.286134 297.521762
-916.793667 606.751294 298.183724
-918.622719 607.216453 298.845685
-920.451772 607.681612 299.507647
-922.280824 608.146772 300.169609
-924.109877 608.611931 300.831571
-925.938929 609.077090 301.493533
-927.767982 609.542250 302.155495
-929.597034 610.007409 302.817457
-931.426087 610.472568 303.479419
-933.255139 610.937728 304.141381
-935.084192 611.402887 304.803343
-936.913244 611.868046 305.465305
-938.742297 612.333206 306.127267
-940.571349 612.798365 306.789229
-942.400402 613.263524 307.451191
-944.229454 613.728684 308.113153
-946.058507 614.193843 308.775115
-947.887559 614.659003 309.437077
-949.716612 615.124162 310.099039
-951.545665 615.589321 310.761001
-953.374717 616.054481 311.422963
-955.203770 616.519640 312.084925
-957.032822 616.984799 312.746887
-958.861875 617.449959 313.408849
-960.690927 617.915118 314.070811
-962.519980 618.380277 314.732773
-964.349032 618.845437 315.394735
-966.178085 619.310596 316.056696
-968.007137 619.775755 316.718658
-969.836190 620.240915 317.380620
-971.665242 620.706074 318.042582
-973.494295 621.171234 318.704544
-975.323347 621.636393 319.366506
-977.152400 622.101552 320.028468
-978.981452 622.566712 320.690430
-980.810505 623.031871 321.352392
-982.639557 623.497030 322.014354
-984.468610 623.962190 322.676316
-986.297662 624.427349 323.338278
-988.126715 624.892508 324.000240
-989.955768 625.357668 324.662202
-991.784820 625.822827 325.324164
-993.613873 626.287986 325.986126
-995.442925 626.753146 326.648088
-997.271978 627.218305 327.310050
-999.101030 627.683464 327.972012
-1000.930083 628.148624 328.633974
-1002.759135 628.613783 329.295936
-1004.588188 629.078943 329.957898
-1006.417240 629.544102 330.619860
-1008.246293 630.009261 331.281822
-1010.075345 630.474421 331.943784
-1011.904398 630.939580 332.605745
-1013.733450 631.404739 333.267707
-1015.562503 631.869899 333.929669
-1017.391555 632.335058 334.591631
-1019.220608 632.800217 335.253593
-1021.049660 633.265377 335.915555
-1022.878713 633.730536 336.577517
-1024.707765 634.195695 337.239479
-1026.536818 634.660855 337.901441
-1028.365871 635.126014 338.563403
-1030.194923 635.591174 339.225365
-1032.023976 636.056333 339.887327
-1033.853028 636.521492 340.549289
-1035.682081 636.986652 341.211251
-1037.511133 637.451811 341.873213
-1039.340186 637.916970 342.535175
-1041.169238 638.382130 343.197137
-1042.998291 638.847289 343.859099
-1044.827343 639.312448 344.521061
-1046.656396 639.777608 345.183023
-1048.485448 640.242767 345.844985
-1050.314501 640.707926 346.506947
-1052.143553 641.173086 347.168909
-1053.972606 641.638245 347.830871
-1055.801658 642.103404 348.492833
-1057.630711 642.568564 349.154794
-1059.459763 643.033723 349.816756
-1061.288816 643.498883 350.478718
-1063.117868 643.964042 351.140680
-1064.946921 644.429201 351.802642
-1066.775974 644.894361 352.464604
-1068.605026 645.359520 353.126566
-1070.434079 645.824679 353.788528
-1072.263131 646.289839 354.450490
-1074.092184 646.754998 355.112452
-1075.921236 647.220157 355.774414
-1077.750289 647.685317 356.436376
-1079.579341 648.150476 357.098338
-1081.408394 648.615635 357.760300
-1083.237446 649.080795 358.422262
-1085.066499 649.545954 359.084224
-1086.895551 650.011114 359.746186
-1088.724604 650.476273 360.408148
-1090.553656 650.941432 361.070110
-1092.382709 651.406592 361.732072
-1094.211761 651.871751 362.394034
-1096.040814 652.336910 363.055996
-1097.869866 652.802070 363.717958
-1099.698919 653.267229 364.379920
-1101.527972 653.732388 365.041882
-1103.357024 654.197548 365.703844
-1105.186077 654.662707 366.365805
-1107.015129 655.127866 367.027767
-1108.844182 655.593026 367.689729
-1110.673234 656.058185 368.351691
-1112.502287 656.523344 369.013653
-1114.331339 656.988504 369.675615
-1116.160392 657.453663 370.337577
-1117.989444 657.918823 370.999539
-1119.818497 658.383982 371.661501
-1121.647549 658.849141 372.323463
-1123.476602 659.314301 372.985425
-1125.305654 659.779460 373.647387
-1127.134707 660.244619 374.309349
-1128.963759 660.709779 374.971311
-1130.792812 661.174938 375.633273
-1132.621864 661.640097 376.295235
-1134.450917 662.105257 376.957197
-1136.279969 662.570416 377.619159
-1138.109022 663.035575 378.281121
-1139.938075 663.500735 378.943083
-1141.767127 663.965894 379.605045
-1143.596180 664.431054 380.267007
-1145.425232 664.896213 380.928969
-1147.254285 665.361372 381.590931
-1149.083337 665.826532 382.252893
-1150.912390 666.291691 382.914854
-1152.741442 666.756850 383.576816
-1154.570495 667.222010 384.238778
-1156.399547 667.687169 384.900740
-1158.228600 668.152328 385.562702
-1160.057652 668.617488 386.224664
-1161.886705 669.082647 386.886626
-1163.715757 669.547806 387.548588
-1165.544810 670.012966 388.210550
-1167.373862 670.478125 388.872512
-1169.202915 670.943284 389.534474
-1171.031967 671.408444 390.196436
-1172.861020 671.873603 390.858398
-1174.690072 672.338763 391.520360
-1176.519125 672.803922 392.182322
-1178.348178 673.269081 392.844284
-1180.177230 673.734241 393.506246
-1182.006283 674.199400 394.168208
-1183.835335 674.664559 394.830170
-1185.664388 675.129719 395.492132
-1187.493440 675.594878 396.154094
-1189.322493 676.060037 396.816056
-1191.151545 676.525197 397.478018
-1192.980598 676.990356 398.139980
-1194.809650 677.455515 398.801942
-1196.638703 677.920675 399.463904
-1198.467755 678.385834 400.125865
-1200.296808 678.850994 400.787827
-1202.125860 679.316153 401.449789
-1203.954913 679.781312 402.111751
-1205.783965 680.246472 402.773713
-1207.613018 680.711631 403.435675
-1209.442070 681.176790 404.097637
-1211.271123 681.641950 404.759599
-1213.100175 682.107109 405.421561
-1214.929228 682.572268 406.083523
-1216.758281 683.037428 406.745485
-1218.587333 683.502587 407.407447
-1220.416386 683.967746 408.069409
-1222.245438 684.432906 408.731371
-1224.074491 684.898065 409.393333
-1225.903543 685.363224 410.055295
-1227.732596 685.828384 410.717257
-1229.561648 686.293543 411.379219
-1231.390701 686.758703 412.041181
-1233.219753 687.223862 412.703143
-1235.048806 687.689021 413.365105
-1236.877858 688.154181 414.027067
-1238.706911 688.619340 414.689029
-1240.535963 689.084499 415.350991
-1242.365016 689.549659 416.012953
-1244.194068 690.014818 416.674914
-1246.023121 690.479977 417.336876
-1247.852173 690.945137 417.998838
-1249.681226 691.410296 418.660800
-1252.000000 692.000000 419.500000
-1253.882882 691.736950 420.120936
-1255.765764 691.473901 420.741871
-1257.648645 691.210851 421.362807
-1259.531527 690.947801 421.983743
-1261.414409 690.684752 422.604678
-1263.297291 690.421702 423.225614
-1265.180172 690.158652 423.846550
-1267.063054 689.895603 424.467485
-1268.945936 689.632553 425.088421
-1270.828818 689.369503 425.709356
-1272.711700 689.106454 426.330292
-1274.594581 688.843404 426.951228
-1276.477463 688.580354 427.572163
-1278.360345 688.317305 428.193099
-1280.243227 688.054255 428.814035
-1282.126108 687.791205 429.434970
-1284.008990 687.528156 430.055906
-1285.891872 687.265106 430.676842
-1287.774754 687.002056 431.297777
-1289.657636 686.739007 431.918713
-1291.540517 686.475957 432.539649
-1293.423399 686.212907 433.160584
-1295.306281 685.949858 433.781520
-1297.189163 685.686808 434.402456
-1299.072045 685.423758 435.023391
-1300.954926 685.160709 435.644327
-1302.837808 684.897659 436.265262
-1304.720690 684.634610 436.886198
-1306.603572 684.371560 437.507134
-1308.486453 684.108510 438.128069
-1310.369335 683.845461 438.749005
-1312.252217 683.582411 439.369941
-1314.135099 683.319361 439.990876
-1316.017981 683.056312 440.611812
-1317.900862 682.793262 441.232748
-1319.783744 682.530212 441.853683
-1321.666626 682.267163 442.474619
-1323.549508 682.004113 443.095555
-1325.432389 681.741063 443.716490
-1327.315271 681.478014 444.337426
-1329.198153 681.214964 444.958361
-1331.081035 680.951914 445.579297
-1332.963917 680.688865 446.200233
-1334.846798 680.425815 446.821168
-1336.729680 680.162765 447.442104
-1338.612562 679.899716 448.063040
-1340.495444 679.636666 448.683975
-1342.378325 679.373616 449.304911
-1344.261207 679.110567 449.925847
-1346.144089 678.847517 450.546782
-1348.026971 678.584467 451.167718
-1349.909853 678.321418 451.788654
-1351.792734 678.058368 452.409589
-1353.675616 677.795318 453.030525
-1355.558498 677.532269 453.651461
-1357.441380 677.269219 454.272396
-1359.324261 677.006169 454.893332
-1361.207143 676.743120 455.514267
-1363.090025 676.480070 456.135203
-1364.972907 676.217020 456.756139
-1366.855789 675.953971 457.377074
-1368.738670 675.690921 457.998010
-1370.621552 675.427871 458.618946
-1372.504434 675.164822 459.239881
-1374.387316 674.901772 459.860817
-1376.270198 674.638722 460.481753
-1378.153079 674.375673 461.102688
-1380.035961 674.112623 461.723624
-1381.918843 673.849573 462.344560
-1383.801725 673.586524 462.965495
-1385.684606 673.323474 463.586431
-1387.567488 673.060424 464.207367
-1389.450370 672.797375 464.828302
-1391.333252 672.534325 465.449238
-1393.216134 672.271275 466.070173
-1395.099015 672.008226 466.691109
-1396.981897 671.745176 467.312045
-1398.864779 671.482126 467.932980
-1400.747661 671.219077 468.553916
-1402.630542 670.956027 469.174852
-1404.513424 670.692977 469.795787
-1406.396306 670.429928 470.416723
-1408.279188 670.166878 471.037659
-1410.162070 669.903829 471.658594
-1412.044951 669.640779 472.279530
-1413.927833 669.377729 472.900466
-1415.810715 669.114680 473.521401
-1417.693597 668.851630 474.142337
-1419.576478 668.588580 474.763272
-1421.459360 668.325531 475.384208
-1423.342242 668.062481 476.005144
-1425.225124 667.799431 476.626079
-1427.108006 667.536382 477.247015
-1428.990887 667.273332 477.867951
-1430.873769 667.010282 478.488886
-1432.756651 666.747233 479.109822
-1434.639533 666.484183 479.730758
-1436.522414 666.221133 480.351693
-1438.405296 665.958084 480.972629
-1440.288178 665.695034 481.593565
-1442.171060 665.431984 482.214500
-1444.053942 665.168935 482.835436
-1445.936823 664.905885 483.456372
-1447.819705 664.642835 484.077307
-1449.702587 664.379786 484.698243
-1451.585469 664.116736 485.319178
-1453.468351 663.853686 485.940114
-1455.351232 663.590637 486.561050
-1457.234114 663.327587 487.181985
-1459.116996 663.064537 487.802921
-1460.999878 662.801488 488.423857
-1462.882759 662.538438 489.044792
-1464.765641 662.275388 489.665728
-1466.648523 662.012339 490.286664
-1468.531405 661.749289 490.907599
-1470.414287 661.486239 491.528535
-1472.297168 661.223190 492.149471
-1474.180050 660.960140 492.770406
-1476.062932 660.697090 493.391342
-1477.945814 660.434041 494.012278
-1479.828695 660.170991 494.633213
-1481.711577 659.907941 495.254149
-1483.594459 659.644892 495.875084
-1485.477341 659.381842 496.496020
-1487.360223 659.118792 497.116956
-1489.243104 658.855743 497.737891
-1491.125986 658.592693 498.358827
-1493.008868 658.329643 498.979763
-1494.891750 658.066594 499.600698
-1496.774631 657.803544 500.221634
-1498.657513 657.540494 500.842570
-1500.540395 657.277445 501.463505
-1502.423277 657.014395 502.084441
-1504.306159 656.751345 502.705377
-1506.189040 656.488296 503.326312
-1508.071922 656.225246 503.947248
-1509.954804 655.962197 504.568184
-1511.837686 655.699147 505.189119
-1513.720567 655.436097 505.810055
-1515.603449 655.173048 506.430990
-1517.486331 654.909998 507.051926
-1519.369213 654.646948 507.672862
-1521.252095 654.383899 508.293797
-1523.134976 654.120849 508.914733
-1525.017858 653.857799 509.535669
-1526.900740 653.594750 510.156604
-1528.783622 653.331700 510.777540
-1530.666504 653.068650 511.398476
-1532.549385 652.805601 512.019411
-1534.432267 652.542551 512.640347
-1536.315149 652.279501 513.261283
-1538.198031 652.016452 513.882218
-1540.080912 651.753402 514.503154
-1541.963794 651.490352 515.124089
-1543.846676 651.227303 515.745025
-1545.729558 650.964253 516.365961
-1547.612440 650.701203 516.986896
-1549.495321 650.438154 517.607832
-1551.378203 650.175104 518.228768
-1553.261085 649.912054 518.849703
-1555.143967 649.649005 519.470639
-1557.026848 649.385955 520.091575
-1558.909730 649.122905 520.712510
-1560.792612 648.859856 521.333446
-1562.675494 648.596806 521.954382
-1564.558376 648.333756 522.575317
-1566.441257 648.070707 523.196253
-1568.324139 647.807657 523.817189
-1570.207021 647.544607 524.438124
-1572.089903 647.281558 525.059060
-1573.972784 647.018508 525.679995
-1575.855666 646.755458 526.300931
-1577.738548 646.492409 526.921867
-1579.621430 646.229359 527.542802
-1581.504312 645.966309 528.163738
-1583.387193 645.703260 528.784674
-1585.270075 645.440210 529.405609
-1587.152957 645.177160 530.026545
-1589.035839 644.914111 530.647481
-1590.918721 644.651061 531.268416
-1592.801602 644.388011 531.889352
-1594.684484 644.124962 532.510288
-1596.567366 643.861912 533.131223
-1598.450248 643.598862 533.752159
-1600.333129 643.335813 534.373095
-1602.216011 643.072763 534.994030
-1604.098893 642.809713 535.614966
-1605.981775 642.546664 536.235901
-1607.864657 642.283614 536.856837
-1609.747538 642.020565 537.477773
-1611.630420 641.757515 538.098708
-1613.513302 641.494465 538.719644
-1615.396184 641.231416 539.340580
-1617.279065 640.968366 539.961515
-1619.161947 640.705316 540.582451
-1621.044829 640.442267 541.203387
-1622.927711 640.179217 541.824322
-1624.810593 639.916167 542.445258
-1626.693474 639.653118 543.066194
-1628.576356 639.390068 543.687129
-1630.459238 639.127018 544.308065
-1632.342120 638.863969 544.929000
-1634.225001 638.600919 545.549936
-1636.107883 638.337869 546.170872
-1637.990765 638.074820 546.791807
-1639.873647 637.811770 547.412743
-1641.756529 637.548720 548.033679
-1643.639410 637.285671 548.654614
-1645.522292 637.022621 549.275550
-1647.405174 636.759571 549.896486
-1649.288056 636.496522 550.517421
-1651.170937 636.233472 551.138357
-1653.053819 635.970422 551.759293
-1654.936701 635.707373 552.380228
-1656.819583 635.444323 553.001164
-1658.702465 635.181273 553.622100
-1660.585346 634.918224 554.243035
-1662.468228 634.655174 554.863971
-1664.351110 634.392124 555.484906
-1666.233992 634.129075 556.105842
-1668.116874 633.866025 556.726778
-1669.999755 633.602975 557.347713
-1671.882637 633.339926 557.968649
-1673.765519 633.076876 558.589585
-1675.648401 632.813826 559.210520
-1677.531282 632.550777 559.831456
-1679.414164 632.287727 560.452392
-1681.297046 632.024677 561.073327
-1683.179928 631.761628 561.694263
-1685.062810 631.498578 562.315199
-1686.945691 631.235528 562.936134
-1688.828573 630.972479 563.557070
-1690.711455 630.709429 564.178006
-1692.594337 630.446379 564.798941
-1694.477218 630.183330 565.419877
-1696.360100 629.920280 566.040812
-1698.242982 629.657230 566.661748
-1700.125864 629.394181 567.282684
-1702.008746 629.131131 567.903619
-1703.891627 628.868081 568.524555
-1705.774509 628.605032 569.145491
-1707.657391 628.341982 569.766426
-1709.540273 628.078932 570.387362
-1711.423154 627.815883 571.008298
-1713.306036 627.552833 571.629233
-1715.188918 627.289784 572.250169
-1717.071800 627.026734 572.871105
-1718.954682 626.763684 573.492040
-1720.837563 626.500635 574.112976
-1722.720445 626.237585 574.733912
-1724.603327 625.974535 575.354847
-1726.486209 625.711486 575.975783
-1728.369090 625.448436 576.596718
-1730.251972 625.185386 577.217654
-1732.134854 624.922337 577.838590
-1734.017736 624.659287 578.459525
-1735.900618 624.396237 579.080461
-1737.783499 624.133188 579.701397
-1739.666381 623.870138 580.322332
-1741.549263 623.607088 580.943268
-1743.432145 623.344039 581.564204
-1745.315027 623.080989 582.185139
-1747.197908 622.817939 582.806075
-1749.080790 622.554890 583.427011
-1750.963672 622.291840 584.047946
-1752.846554 622.028790 584.668882
-1754.729435 621.765741 585.289817
-1756.612317 621.502691 585.910753
-1758.495199 621.239641 586.531689
-1760.378081 620.976592 587.152624
-1762.260963 620.713542 587.773560
-1764.143844 620.450492 588.394496
-1766.026726 620.187443 589.015431
-1767.909608 619.924393 589.636367
-1769.792490 619.661343 590.257303
-1771.675371 619.398294 590.878238
-1773.558253 619.135244 591.499174
-1775.441135 618.872194 592.120110
-1777.324017 618.609145 592.741045
-1779.206899 618.346095 593.361981
-1781.089780 618.083045 593.982917
-1782.972662 617.819996 594.603852
-1784.855544 617.556946 595.224788
-1786.738426 617.293896 595.845723
-1788.621307 617.030847 596.466659
-1790.504189 616.767797 597.087595
-1792.387071 616.504747 597.708530
-1794.269953 616.241698 598.329466
-1796.152835 615.978648 598.950402
-1798.035716 615.715598 599.571337
-1799.918598 615.452549 600.192273
-1801.801480 615.189499 600.813209
-1803.684362 614.926449 601.434144
-1805.567243 614.663400 602.055080
-1807.450125 614.400350 602.676016
-1809.333007 614.137300 603.296951
-1811.215889 613.874251 603.917887
-1813.098771 613.611201 604.538823
-1814.981652 613.348152 605.159758
-1816.864534 613.085102 605.780694
-1818.747416 612.822052 606.401629
-1820.630298 612.559003 607.022565
-1822.513180 612.295953 607.643501
-1824.396061 612.032903 608.264436
-1826.278943 611.769854 608.885372
-1828.161825 611.506804 609.506308
-1830.044707 611.243754 610.127243
-1831.927588 610.980705 610.748179
-1833.810470 610.717655 611.369115
-1835.693352 610.454605 611.990050
-1837.576234 610.191556 612.610986
-1839.459116 609.928506 613.231922
-1841.341997 609.665456 613.852857
-1843.224879 609.402407 614.473793
-1845.107761 609.139357 615.094728
-1846.990643 608.876307 615.715664
-1848.873524 608.613258 616.336600
-1850.756406 608.350208 616.957535
-1852.639288 608.087158 617.578471
-1854.522170 607.824109 618.199407
-1856.405052 607.561059 618.820342
-1858.287933 607.298009 619.441278
-1860.170815 607.034960 620.062214
-1862.053697 606.771910 620.683149
-1863.936579 606.508860 621.304085
-1865.819460 606.245811 621.925021
-1867.702342 605.982761 622.545956
-1869.585224 605.719711 623.166892
-1871.468106 605.456662 623.787828
-1873.350988 605.193612 624.408763
-1875.233869 604.930562 625.029699
-1877.116751 604.667513 625.650634
-1878.999633 604.404463 626.271570
-1880.882515 604.141413 626.892506
-1882.765396 603.878364 627.513441
-1884.648278 603.615314 628.134377
-1886.531160 603.352264 628.755313
-1888.414042 603.089215 629.376248
-1890.296924 602.826165 629.997184
-1892.179805 602.563115 630.618120
-1894.062687 602.300066 631.239055
-1895.945569 602.037016 631.859991
-1897.828451 601.773966 632.480927
-1899.711333 601.510917 633.101862
-1901.594214 601.247867 633.722798
-1903.477096 600.984817 634.343734
-1905.359978 600.721768 634.964669
-1907.242860 600.458718 635.585605
-1909.125741 600.195668 636.206540
-1911.008623 599.932619 636.827476
-1912.891505 599.669569 637.448412
-1914.774387 599.406519 638.069347
-1916.657269 599.143470 638.690283
-1918.540150 598.880420 639.311219
-1920.423032 598.617371 639.932154
-1922.305914 598.354321 640.553090
-1924.188796 598.091271 641.174026
-1926.071677 597.828222 641.794961
-1927.954559 597.565172 642.415897
-1929.837441 597.302122 643.036833
-1931.720323 597.039073 643.657768
-1933.603205 596.776023 644.278704
-1935.486086 596.512973 644.899640
-1937.368968 596.249924 645.520575
-1939.251850 595.986874 646.141511
-1941.134732 595.723824 646.762446
-1943.017613 595.460775 647.383382
-1944.900495 595.197725 648.004318
-1946.783377 594.934675 648.625253
-1948.666259 594.671626 649.246189
-1950.549141 594.408576 649.867125
-1952.432022 594.145526 650.488060
-1954.314904 593.882477 651.108996
-1956.197786 593.619427 651.729932
-1958.080668 593.356377 652.350867
-1959.963549 593.093328 652.971803
-1961.846431 592.830278 653.592739
-1963.729313 592.567228 654.213674
-1965.612195 592.304179 654.834610
-1967.495077 592.041129 655.455545
-1969.377958 591.778079 656.076481
-1971.260840 591.515030 656.697417
-1973.143722 591.251980 657.318352
-1975.026604 590.988930 657.939288
-1976.909486 590.725881 658.560224
-1978.792367 590.462831 659.181159
-1980.675249 590.199781 659.802095
-1982.558131 589.936732 660.423031
-1984.441013 589.673682 661.043966
-1986.323894 589.410632 661.664902
-1988.206776 589.147583 662.285838
-1990.089658 588.884533 662.906773
-1991.972540 588.621483 663.527709
-1993.855422 588.358434 664.148645
-1995.738303 588.095384 664.769580
-1997.621185 587.832334 665.390516
-1999.504067 587.569285 666.011451
-2001.386949 587.306235 666.632387
-2003.269830 587.043185 667.253323
-2005.152712 586.780136 667.874258
-2007.035594 586.517086 668.495194
-2008.918476 586.254036 669.116130
-2010.801358 585.990987 669.737065
-2012.684239 585.727937 670.358001
-2014.567121 585.464887 670.978937
-2016.450003 585.201838 671.599872
-2018.332885 584.938788 672.220808
-2020.215766 584.675739 672.841744
-2022.098648 584.412689 673.462679
-2023.981530 584.149639 674.083615
-2025.864412 583.886590 674.704551
-2027.747294 583.623540 675.325486
-2029.630175 583.360490 675.946422
-2031.513057 583.097441 676.567357
-2033.395939 582.834391 677.188293
-2035.278821 582.571341 677.809229
-2037.161702 582.308292 678.430164
-2039.044584 582.045242 679.051100
-2040.927466 581.782192 679.672036
-2042.810348 581.519143 680.292971
-2044.693230 581.256093 680.913907
-2046.576111 580.993043 681.534843
-2048.458993 580.729994 682.155778
-2050.341875 580.466944 682.776714
-2052.224757 580.203894 683.397650
-2054.107639 579.940845 684.018585
-2055.990520 579.677795 684.639521
-2057.873402 579.414745 685.260456
-2059.756284 579.151696 685.881392
-2061.639166 578.888646 686.502328
-2063.522047 578.625596 687.123263
-2065.404929 578.362547 687.744199
-2067.287811 578.099497 688.365135
-2069.170693 577.836447 688.986070
-2071.053575 577.573398 689.607006
-2072.936456 577.310348 690.227942
-2074.819338 577.047298 690.848877
-2076.702220 576.784249 691.469813
-2078.585102 576.521199 692.090749
-2080.467983 576.258149 692.711684
-2082.350865 575.995100 693.332620
-2084.233747 575.732050 693.953556
-2086.116629 575.469000 694.574491
-2087.999511 575.205951 695.195427
-2089.882392 574.942901 695.816362
-2091.765274 574.679851 696.437298
-2093.648156 574.416802 697.058234
-2095.531038 574.153752 697.679169
-2097.413919 573.890702 698.300105
-2099.296801 573.627653 698.921041
-2101.179683 573.364603 699.541976
-2103.062565 573.101553 700.162912
-2104.945447 572.838504 700.783848
-2106.828328 572.575454 701.404783
-2108.711210 572.312404 702.025719
-2110.594092 572.049355 702.646655
-2112.476974 571.786305 703.267590
-2114.359856 571.523255 703.888526
-2116.242737 571.260206 704.509462
-2118.125619 570.997156 705.130397
-2120.008501 570.734106 705.751333
-2121.891383 570.471057 706.372268
-2123.774264 570.208007 706.993204
-2125.657146 569.944958 707.614140
-2127.540028 569.681908 708.235075
-2129.422910 569.418858 708.856011
-2131.305792 569.155809 709.476947
-2133.188673 568.892759 710.097882
-2135.071555 568.629709 710.718818
-2136.954437 568.366660 711.339754
-2138.837319 568.103610 711.960689
-2140.720200 567.840560 712.581625
-2142.603082 567.577511 713.202561
-2144.485964 567.314461 713.823496
-2146.368846 567.051411 714.444432
-2148.251728 566.788362 715.065368
-2150.134609 566.525312 715.686303
-2152.017491 566.262262 716.307239
-2153.900373 565.999213 716.928174
-2155.783255 565.736163 717.549110
-2157.666136 565.473113 718.170046
-2159.549018 565.210064 718.790981
-2161.431900 564.947014 719.411917
-2163.314782 564.683964 720.032853
-2165.197664 564.420915 720.653788
-2167.080545 564.157865 721.274724
-2168.963427 563.894815 721.895660
-2170.846309 563.631766 722.516595
-2172.729191 563.368716 723.137531
-2174.612072 563.105666 723.758467
-2176.494954 562.842617 724.379402
-2178.377836 562.579567 725.000338
-2180.260718 562.316517 725.621273
-2182.143600 562.053468 726.242209
-2184.026481 561.790418 726.863145
-2185.909363 561.527368 727.484080
-2187.792245 561.264319 728.105016
-2189.675127 561.001269 728.725952
-2191.558009 560.738219 729.346887
-2193.440890 560.475170 729.967823
-2195.323772 560.212120 730.588759
-2197.206654 559.949070 731.209694
-2199.089536 559.686021 731.830630
-2200.972417 559.422971 732.451566
-2202.855299 559.159921 733.072501
-2204.738181 558.896872 733.693437
-2206.621063 558.633822 734.314373
-2208.503945 558.370772 734.935308
-2210.386826 558.107723 735.556244
-2212.269708 557.844673 736.177179
-2214.152590 557.581623 736.798115
-2216.035472 557.318574 737.419051
-2217.918353 557.055524 738.039986
-2219.801235 556.792474 738.660922
-2221.684117 556.529425 739.281858
-2223.566999 556.266375 739.902793
-2225.449881 556.003326 740.523729
-2227.332762 555.740276 741.144665
-2229.215644 555.477226 741.765600
-2231.098526 555.214177 742.386536
-2232.981408 554.951127 743.007472
-2234.864289 554.688077 743.628407
-2236.747171 554.425028 744.249343
-2238.630053 554.161978 744.870279
-2240.512935 553.898928 745.491214
-2242.395817 553.635879 746.112150
-2244.278698 553.372829 746.733085
-2246.161580 553.109779 747.354021
-2248.044462 552.846730 747.974957
-2249.927344 552.583680 748.595892
-2251.810225 552.320630 749.216828
-2253.693107 552.057581 749.837764
-2255.575989 551.794531 750.458699
-2257.458871 551.531481 751.079635
-2259.341753 551.268432 751.700571
-2261.224634 551.005382 752.321506
-2263.107516 550.742332 752.942442
-2264.990398 550.479283 753.563378
-2266.873280 550.216233 754.184313
-2268.756162 549.953183 754.805249
-2270.639043 549.690134 755.426184
-2272.521925 549.427084 756.047120
-2274.404807 549.164034 756.668056
-2276.287689 548.900985 757.288991
-2278.170570 548.637935 757.909927
-2280.053452 548.374885 758.530863
-2281.936334 548.111836 759.151798
-2283.819216 547.848786 759.772734
-2285.702098 547.585736 760.393670
-2287.584979 547.322687 761.014605
-2289.467861 547.059637 761.635541
-2291.350743 546.796587 762.256477
-2293.233625 546.533538 762.877412
-2295.116506 546.270488 763.498348
-2296.999388 546.007438 764.119284
-2298.882270 545.744389 764.740219
-2300.765152 545.481339 765.361155
-2302.648034 545.218289 765.982090
-2304.530915 544.955240 766.603026
-2306.413797 544.692190 767.223962
-2308.296679 544.429140 767.844897
-2310.179561 544.166091 768.465833
-2312.062442 543.903041 769.086769
-2313.945324 543.639991 769.707704
-2315.828206 543.376942 770.328640
-2317.711088 543.113892 770.949576
-2319.593970 542.850842 771.570511
-2321.476851 542.587793 772.191447
-2323.359733 542.324743 772.812383
-2325.242615 542.061694 773.433318
-2327.125497 541.798644 774.054254
-2329.008378 541.535594 774.675190
-2330.891260 541.272545 775.296125
-2332.774142 541.009495 775.917061
-2334.657024 540.746445 776.537996
-2336.539906 540.483396 777.158932
-2338.422787 540.220346 777.779868
-2340.305669 539.957296 778.400803
-2342.188551 539.694247 779.021739
-2344.071433 539.431197 779.642675
-2345.954315 539.168147 780.263610
-2347.837196 538.905098 780.884546
-2349.720078 538.642048 781.505482
-2351.602960 538.378998 782.126417
-2353.485842 538.115949 782.747353
-2355.368723 537.852899 783.368289
-2357.251605 537.589849 783.989224
-2359.134487 537.326800 784.610160
-2361.017369 537.063750 785.231096
-2362.900251 536.800700 785.852031
-2364.783132 536.537651 786.472967
-2366.666014 536.274601 787.093902
-2368.548896 536.011551 787.714838
-2370.431778 535.748502 788.335774
-2372.314659 535.485452 788.956709
-2374.197541 535.222402 789.577645
-2376.080423 534.959353 790.198581
-2377.963305 534.696303 790.819516
-2379.846187 534.433253 791.440452
-2381.729068 534.170204 792.061388
-2383.611950 533.907154 792.682323
-2385.494832 533.644104 793.303259
-2387.377714 533.381055 793.924195
-2389.260595 533.118005 794.545130
-2391.143477 532.854955 795.166066
-2393.026359 532.591906 795.787001
-2394.909241 532.328856 796.407937
-2396.792123 532.065806 797.028873
-2398.675004 531.802757 797.649808
-2400.557886 531.539707 798.270744
-2402.440768 531.276657 798.891680
-2404.323650 531.013608 799.512615
-2406.206531 530.750558 800.133551
-2408.089413 530.487508 800.754487
-2409.972295 530.224459 801.375422
-2411.855177 529.961409 801.996358
-2413.738059 529.698359 802.617294
-2415.620940 529.435310 803.238229
-2417.503822 529.172260 803.859165
-2419.386704 528.909210 804.480101
-2421.269586 528.646161 805.101036
-2423.152468 528.383111 805.721972
-2425.035349 528.120061 806.342907
-2426.918231 527.857012 806.963843
-2428.801113 527.593962 807.584779
-2430.683995 527.330913 808.205714
-2432.566876 527.067863 808.826650
-2434.449758 526.804813 809.447586
-2436.332640 526.541764 810.068521
-2438.215522 526.278714 810.689457
-2440.098404 526.015664 811.310393
-2441.981285 525.752615 811.931328
-2443.864167 525.489565 812.552264
-2445.747049 525.226515 813.173200
-2447.629931 524.963466 813.794135
-2449.512812 524.700416 814.415071
-2451.395694 524.437366 815.036007
-2453.278576 524.174317 815.656942
-2455.161458 523.911267 816.277878
-2457.044340 523.648217 816.898813
-2458.927221 523.385168 817.519749
-2460.810103 523.122118 818.140685
-2462.692985 522.859068 818.761620
-2464.575867 522.596019 819.382556
-2466.458748 522.332969 820.003492
-2468.341630 522.069919 820.624427
-2470.224512 521.806870 821.245363
-2472.107394 521.543820 821.866299
-2473.990276 521.280770 822.487234
-2475.873157 521.017721 823.108170
-2477.756039 520.754671 823.729106
-2479.638921 520.491621 824.350041
-2481.521803 520.228572 824.970977
-2483.404684 519.965522 825.591912
-2485.287566 519.702472 826.212848
-2487.170448 519.439423 826.833784
-2489.053330 519.176373 827.454719
-2490.936212 518.913323 828.075655
-2492.819093 518.650274 828.696591
-2494.701975 518.387224 829.317526
-2496.584857 518.124174 829.938462
-2498.467739 517.861125 830.559398
-2500.350621 517.598075 831.180333
-2502.233502 517.335025 831.801269
-2504.116384 517.071976 832.422205
-2505.999266 516.808926 833.043140
-2507.882148 516.545876 833.664076
-2509.765029 516.282827 834.285012
-2511.647911 516.019777 834.905947
-2513.530793 515.756727 835.526883
-2515.413675 515.493678 836.147818
-2517.296557 515.230628 836.768754
-2519.179438 514.967578 837.389690
-2521.062320 514.704529 838.010625
-2522.945202 514.441479 838.631561
-2524.828084 514.178429 839.252497
-2526.710965 513.915380 839.873432
-2528.593847 513.652330 840.494368
-2530.476729 513.389281 841.115304
-2532.359611 513.126231 841.736239
-2534.242493 512.863181 842.357175
-2536.125374 512.600132 842.978111
-2538.008256 512.337082 843.599046
-2539.891138 512.074032 844.219982
-2541.774020 511.810983 844.840918
-2543.656901 511.547933 845.461853
-2545.539783 511.284883 846.082789
-2547.422665 511.021834 846.703724
-2549.305547 510.758784 847.324660
-2551.188429 510.495734 847.945596
-2553.071310 510.232685 848.566531
-2554.954192 509.969635 849.187467
-2556.837074 509.706585 849.808403
-2558.719956 509.443536 850.429338
-2560.602837 509.180486 851.050274
-2562.485719 508.917436 851.671210
-2564.368601 508.654387 852.292145
-2566.251483 508.391337 852.913081
-2568.134365 508.128287 853.534017
-2570.017246 507.865238 854.154952
-2571.900128 507.602188 854.775888
-2573.783010 507.339138 855.396824
-2575.665892 507.076089 856.017759
-2577.548774 506.813039 856.638695
-2579.431655 506.549989 857.259630
-2581.314537 506.286940 857.880566
-2583.197419 506.023890 858.501502
-2585.080301 505.760840 859.122437
-2586.963182 505.497791 859.743373
-2588.846064 505.234741 860.364309
-2590.728946 504.971691 860.985244
-2592.611828 504.708642 861.606180
-2594.494710 504.445592 862.227116
-2596.377591 504.182542 862.848051
-2598.260473 503.919493 863.468987
-2600.143355 503.656443 864.089923
-2602.026237 503.393393 864.710858
-2603.909118 503.130344 865.331794
-2605.792000 502.867294 865.952729
-2607.674882 502.604244 866.573665
-2609.557764 502.341195 867.194601
-2612.000000 502.000000 868.000000
-2613.961595 501.761063 867.691694
-2615.923191 501.522126 867.383388
-2617.884786 501.283189 867.075083
-2619.846382 501.044252 866.766777
-2621.807977 500.805315 866.458471
-2623.769573 500.566378 866.150165
-2625.731168 500.327441 865.841860
-2627.692764 500.088504 865.533554
-2629.654359 499.849567 865.225248
-2631.615954 499.610630 864.916942
-2633.577550 499.371693 864.608637
-2635.539145 499.132756 864.300331
-2637.500741 498.893819 863.992025
-2639.462336 498.654882 863.683719
-2641.423932 498.415945 863.375413
-2643.385527 498.177008 863.067108
-2645.347123 497.938072 862.758802
-2647.308718 497.699135 862.450496
-2649.270313 497.460198 862.142190
-2651.231909 497.221261 861.833885
-2653.193504 496.982324 861.525579
-2655.155100 496.743387 861.217273
-2657.116695 496.504450 860.908967
-2659.078291 496.265513 860.600662
-2661.039886 496.026576 860.292356
-2663.001481 495.787639 859.984050
-2664.963077 495.548702 859.675744
-2666.924672 495.309765 859.367439
-2668.886268 495.070828 859.059133
-2670.847863 494.831891 858.750827
-2672.809459 494.592954 858.442521
-2674.771054 494.354017 858.134215
-2676.732650 494.115080 857.825910
-2678.694245 493.876143 857.517604
-2680.655840 493.637206 857.209298
-2682.617436 493.398269 856.900992
-2684.579031 493.159332 856.592687
-2686.540627 492.920395 856.284381
-2688.502222 492.681458 855.976075
-2690.463818 492.442521 855.667769
-2692.425413 492.203584 855.359464
-2694.387009 491.964647 855.051158
-2696.348604 491.725710 854.742852
-2698.310199 491.486773 854.434546
-2700.271795 491.247836 854.126240
-2702.233390 491.008899 853.817935
-2704.194986 490.769962 853.509629
-2706.156581 490.531025 853.201323
-2708.118177 490.292089 852.893017
-2710.079772 490.053152 852.584712
-2712.041368 489.814215 852.276406
-2714.002963 489.575278 851.968100
-2715.964558 489.336341 851.659794
-2717.926154 489.097404 851.351489
-2719.887749 488.858467 851.043183
-2721.849345 488.619530 850.734877
-2723.810940 488.380593 850.426571
-2725.772536 488.141656 850.118266
-2727.734131 487.902719 849.809960
-2729.695727 487.663782 849.501654
-2731.657322 487.424845 849.193348
-2733.618917 487.185908 848.885042
-2735.580513 486.946971 848.576737
-2737.542108 486.708034 848.268431
-2739.503704 486.469097 847.960125
-2741.465299 486.230160 847.651819
-2743.426895 485.991223 847.343514
-2745.388490 485.752286 847.035208
-2747.350086 485.513349 846.726902
-2749.311681 485.274412 846.418596
-2751.273276 485.035475 846.110291
-2753.234872 484.796538 845.801985
-2755.196467 484.557601 845.493679
-2757.158063 484.318664 845.185373
-2759.119658 484.079727 844.877067
-2761.081254 483.840790 844.568762
-2763.042849 483.601853 844.260456
-2765.004444 483.362916 843.952150
-2766.966040 483.123979 843.643844
-2768.927635 482.885042 843.335539
-2770.889231 482.646105 843.027233
-2772.850826 482.407169 842.718927
-2774.812422 482.168232 842.410621
-2776.774017 481.929295 842.102316
-2778.735613 481.690358 841.794010
-2780.697208 481.451421 841.485704
-2782.658803 481.212484 841.177398
